-0.06892 -0.02248 -0.04252
-0.25241 -0.00803 0.03499
0.17081 0.00084 0.03548
-0.09529 0.00796 -0.01555
-0.31255 -0.02650 -0.07261
-0.29928 -0.02677 -0.04946
0.10561 0.02941 -0.01340
-0.08057 -0.00934 -0.17288
-0.08914 -0.00960 -0.18248
-0.16624 -0.03704 0.15302
0.09335 -0.00762 -0.04053
-0.01711 0.01074 0.01681
-0.18122 -0.01599 -0.05612
-0.27306 0.04876 0.06610
-0.08345 -0.01042 0.19328
-0.36902 -0.03857 0.03378
0.08051 -0.00776 -0.02916
-0.25690 0.05952 -0.06703
-0.38854 -0.03166 -0.14674
-0.02090 -0.00915 -0.08992
-0.11117 -0.00505 -0.07723
0.37311 -0.03333 0.00811
0.05995 -0.04181 0.00708
-0.12378 0.00620 -0.01324
0.02090 -0.01674 -0.03465
-0.17203 -0.04054 0.03986
-0.18007 -0.01566 -0.20532
-0.17667 -0.01576 -0.16189
-0.21887 0.04674 0.05870
-0.35321 -0.02866 -0.14829
-0.11878 -0.00063 -0.05024
0.01954 -0.03771 0.01982
-0.01701 -0.01708 -0.08334
-0.30901 -0.03281 -0.06436
-0.29069 -0.03281 -0.04948
-0.17123 -0.01607 -0.06110
-0.28581 -0.05171 0.02002
-0.32407 -0.02433 0.00352
-0.18563 -0.02126 0.04335
-0.16694 -0.03346 0.14111
-0.17174 -0.02470 -0.13939
-0.22960 0.00658 0.04067
-0.21637 0.05635 -0.07216
-0.22961 0.07686 0.07381
0.22643 -0.00578 -0.02359
-0.19440 -0.00739 0.04274
-0.17567 -0.00837 0.09823
-0.17894 -0.00912 0.11642
-0.39446 -0.02915 -0.15039
-0.12476 -0.00992 0.19445
-0.12082 -0.00879 0.16754
-0.36012 -0.03176 -0.13991
-0.01758 -0.01172 0.03409
-0.28198 -0.00860 0.01566
-0.09889 -0.09223 -0.05696
-0.14058 -0.01183 0.23674
-0.01727 -0.01519 0.05396
-0.18501 -0.01336 -0.24808
-0.10070 -0.03855 0.13733
0.16297 -0.04068 0.00971
-0.11422 -0.01753 0.07027
0.04105 0.02200 -0.01447
0.16406 -0.03745 -0.01553
-0.12306 -0.01721 0.06591
-0.17657 -0.01687 -0.27092
-0.11352 -0.01764 0.05969
-0.28957 -0.02649 -0.06312
-0.04741 -0.01941 0.09727
-0.09948 -0.08433 0.04271
-0.09319 -0.01843 0.09057
-0.19425 -0.01510 0.07097
-0.13693 -0.00819 0.14583
-0.14035 -0.00686 0.10362
-0.14710 -0.00806 0.13020
0.16763 -0.00045 -0.01348
-0.16462 -0.01602 -0.16959
-0.20224 -0.03716 0.04083
-0.03971 -0.00912 -0.12078
0.02005 -0.03123 -0.01760
-0.26688 -0.00833 -0.01780
-0.33710 -0.02094 -0.00711
-0.04764 0.01353 -0.01535
-0.12785 0.00198 0.02735
-0.18680 -0.03788 0.04052
-0.38272 -0.03223 0.14283
-0.24051 0.03630 0.05451
-0.33078 -0.02850 0.12634
-0.23642 0.07261 0.07713
0.19233 0.01608 -0.00194
-0.34144 -0.02651 0.11840
-0.23944 0.01944 0.05434
-0.25703 0.01253 0.04440
0.16483 -0.05974 -0.00318
0.03068 -0.00792 0.03243
-0.20518 0.01161 -0.04335
0.00328 -0.04120 -0.00951
-0.10640 -0.03053 0.09897
-0.13461 -0.03449 -0.19271
0.16775 -0.00315 0.01141
0.37197 -0.03556 0.00313
0.03310 -0.03880 0.02164
-0.03045 0.02418 -0.00796
0.27421 -0.04183 -0.00512
-0.31684 -0.02639 0.09155
-0.18628 0.01837 0.04530
-0.36156 -0.02760 -0.14210
-0.07125 -0.00207 -0.05854
-0.22385 0.01636 -0.05460
-0.19103 0.03710 0.05480
-0.08396 -0.00994 0.18552
0.04078 -0.00832 -0.02899
0.18596 0.01337 0.02137
0.09380 -0.03299 -0.01851
-0.10844 -0.01779 -0.07912
-0.12032 -0.01730 -0.07176
-0.31214 -0.02910 0.00044
-0.16151 -0.01602 -0.23064
0.02136 -0.01128 0.02161
-0.34299 -0.03079 -0.00937
-0.14477 -0.02779 -0.09420
-0.03488 -0.01683 -0.04883
-0.18184 -0.02037 0.26646
-0.17808 -0.01290 0.27178
-0.16786 -0.02637 -0.14229
0.17054 0.00771 0.02553
0.25856 0.01323 0.00934
-0.16437 -0.01594 0.24666
0.32380 -0.01740 0.01922
-0.09255 -0.02434 0.04251
-0.17363 -0.05374 -0.02269
-0.10069 -0.03832 -0.05331
-0.33981 -0.03975 -0.00749
0.33676 -0.00223 0.00931
0.03857 0.00855 -0.02081
-0.23384 0.07640 -0.07427
-0.09201 -0.03683 -0.10310
-0.15205 -0.01621 -0.22200
-0.14406 -0.01651 -0.18482
-0.03368 -0.04929 0.02812
-0.18903 -0.02718 -0.18702
-0.08721 -0.02456 -0.10162
-0.26950 0.02091 0.04863
-0.12902 0.00013 0.04239
-0.24127 0.07466 -0.07901
0.00674 0.02879 -0.00194
-0.31870 -0.05079 0.02156
-0.09314 -0.03785 0.05169
0.21132 -0.00803 -0.02380
-0.29478 -0.02672 0.08142
-0.05877 -0.03261 0.02985
-0.16478 -0.00736 0.08677
-0.18549 -0.01404 0.27105
-0.14357 -0.02494 0.18918
-0.26051 -0.05094 0.01308
-0.35049 -0.01478 -0.02123
-0.24661 -0.01364 -0.03656
-0.22819 -0.00700 -0.02281
-0.09524 -0.06491 0.00623
-0.13790 -0.00419 0.05932
-0.27392 0.05978 -0.07250
-0.13581 -0.00599 0.08519
0.19202 0.00698 -0.00465
-0.22660 0.00310 0.03902
-0.25866 0.04045 -0.05839
-0.24988 -0.00383 0.04376
-0.14718 -0.02706 -0.18762
0.03442 -0.03806 0.02565
0.00350 -0.01227 -0.05613
-0.25811 0.07518 0.07281
-0.10739 -0.01962 0.04972
-0.18024 -0.03740 0.18096
0.37501 -0.02342 0.01112
-0.06507 -0.08536 -0.00567
-0.09053 -0.06846 0.05029
-0.09655 -0.06520 -0.00822
0.20089 -0.00268 0.01201
-0.07733 -0.08024 0.00969
0.00087 -0.01013 -0.04558
0.01346 0.01803 0.01481
-0.01338 -0.00009 0.04342
-0.10635 -0.01422 0.14327
-0.13917 -0.05368 -0.03196
-0.13658 -0.02725 0.18882
-0.18820 0.00252 0.04818
-0.38159 -0.02822 0.14625
-0.21826 0.05753 0.07130
-0.34657 -0.01102 -0.03158
-0.14081 -0.05493 0.01917
-0.19294 -0.01359 0.15578
-0.05547 -0.04555 -0.00363
0.17352 0.01437 0.01846
0.12508 -0.04121 -0.00072
-0.22244 -0.00749 -0.03067
-0.05609 -0.03270 0.03432
-0.09229 -0.02099 -0.04084
-0.05734 -0.03284 -0.09813
-0.15000 -0.01644 -0.07853
-0.13854 -0.01677 -0.06968
-0.35475 -0.04443 -0.02059
-0.10322 -0.00502 -0.07767
-0.09705 -0.00589 -0.10123
-0.00792 -0.04159 0.01426
-0.08009 -0.05645 0.00096
0.23276 0.01889 0.00668
0.01947 -0.00902 0.04402
-0.13630 -0.02514 0.10873
-0.13666 -0.00774 0.13307
-0.13362 -0.00700 0.11552
-0.14820 -0.00738 0.10953
0.31799 -0.01706 -0.02083
-0.18454 -0.01211 -0.26749
-0.08719 -0.01342 0.09971
-0.36320 -0.02535 -0.01053
-0.35051 -0.03242 -0.05323
-0.35023 -0.03442 0.00410
0.16279 0.01217 -0.01925
-0.21827 -0.00618 0.01288
-0.08146 -0.00717 0.02601
-0.17871 0.00902 -0.04196
-0.00606 -0.00888 0.03923
-0.26632 -0.04968 0.03053
-0.11894 -0.03129 0.19046
0.01394 -0.00953 0.02937
-0.18011 -0.02731 -0.18895
-0.28359 0.07605 0.07546
-0.04004 -0.01159 0.12950
-0.08689 -0.01112 0.20816
0.14357 -0.02729 -0.02036
0.36028 -0.02215 -0.01553
-0.07090 -0.02695 -0.04473
0.05726 -0.00805 0.03412
-0.12543 -0.05496 -0.00917
-0.10417 -0.02534 0.10211
-0.11366 -0.00920 -0.17961
-0.10899 -0.00987 -0.19456
-0.37725 -0.02767 0.10528
-0.14860 -0.00648 0.08446
-0.05317 0.01456 0.01318
-0.25115 0.08526 0.08180
-0.04645 -0.03547 0.01111
-0.07672 -0.01884 0.13512
-0.03372 -0.06618 -0.00909
-0.07004 -0.03733 0.10405
-0.10484 0.01929 -0.00316
-0.08105 -0.02555 -0.03502
-0.35597 -0.02167 -0.04054
-0.00432 -0.04108 0.00860
-0.03433 -0.01902 -0.08859
-0.28733 -0.03931 -0.04293
-0.25799 0.07977 -0.08055
-0.16778 -0.01597 0.12473
-0.08193 0.01215 -0.01370
-0.07477 -0.02645 -0.04453
-0.14034 -0.00554 0.06808
0.17966 0.00564 -0.00123
-0.15905 -0.05444 0.01775
-0.34758 -0.04793 -0.03267
-0.15300 -0.01643 0.26281
-0.18054 -0.01315 0.27456
0.34168 -0.02223 0.01712
-0.01169 -0.06791 0.00361
-0.12504 -0.01170 -0.23795
-0.16134 -0.01601 0.25911
-0.05035 -0.04336 -0.03707
-0.04611 0.00496 0.02925
-0.03074 -0.01117 0.03904
-0.36743 -0.02726 0.09993
-0.16375 -0.01501 -0.18507
-0.26627 0.00303 -0.04148
0.13312 -0.08474 0.00714
-0.14644 -0.00568 0.04340
-0.32962 -0.03280 -0.05782
-0.32258 -0.03282 -0.05880
-0.12589 -0.01202 0.24465
-0.25016 0.03351 -0.05488
-0.16703 -0.01604 -0.06957
-0.16336 -0.01545 0.18980
-0.20124 -0.02012 0.04234
-0.33768 -0.02647 -0.11208
-0.10002 -0.09089 0.04929
-0.11448 -0.06308 -0.00093
-0.08613 -0.01778 0.19849
-0.37472 -0.03264 0.12019
-0.26893 -0.03247 -0.04816
-0.28399 -0.03257 -0.05679
0.19969 0.02611 -0.00099
0.28119 0.01224 -0.00035
-0.03451 -0.01759 -0.11591
-0.14385 -0.01170 -0.23337
-0.00367 -0.01553 -0.02163
-0.03876 -0.00918 -0.02329
-0.35697 -0.03808 -0.04038
0.09554 -0.02111 0.00323
-0.07815 -0.07742 -0.01242
-0.17616 -0.01576 0.17315
-0.26645 -0.01101 0.03339
-0.01890 -0.00946 -0.03144
-0.09855 -0.00554 0.09060
-0.09966 -0.00578 0.09682
-0.00058 0.02789 0.00309
-0.06406 0.01196 -0.01519
-0.13892 -0.00911 -0.17013
0.15840 -0.02948 -0.00551
-0.09564 -0.00622 0.10722
-0.09532 -0.00727 0.13150
-0.17922 -0.01580 -0.06372
-0.35971 -0.03400 0.00918
-0.27993 0.02803 0.05681
-0.02387 -0.01758 -0.06341
-0.24471 0.01976 0.05430
-0.07264 -0.07966 -0.00330
-0.14545 -0.07579 0.00182
0.01233 -0.00805 -0.03087
-0.12083 -0.02301 0.18930
-0.17660 -0.05421 0.00712
0.06992 -0.00859 0.02539
0.21240 0.00013 0.03086
-0.02436 -0.00726 -0.07731
-0.16554 -0.02061 0.15420
-0.09984 -0.03304 0.10317
-0.11435 0.00727 -0.01361
-0.08669 -0.02222 -0.04118
0.19468 0.03985 0.00364
-0.16729 -0.02316 0.04355
-0.19365 -0.00924 -0.26574
-0.35377 -0.01523 0.02708
-0.18802 -0.01544 -0.12737
0.09087 0.00147 0.03184
-0.15141 -0.05497 -0.01134
-0.25917 -0.04186 0.03952
-0.08704 -0.06686 -0.00993
-0.25745 0.00247 0.04248
-0.11931 0.00143 -0.03840
-0.12097 -0.00943 0.18363
-0.13300 -0.00975 0.18718
-0.03246 -0.00924 0.03016
-0.02116 -0.00092 0.04790
-0.33634 -0.01506 -0.02481
-0.11022 -0.02833 -0.19014
-0.34646 -0.03434 -0.03784
-0.29974 -0.03210 0.08648
-0.27742 -0.02656 -0.04081
-0.04001 -0.00917 0.02190
-0.19021 -0.01455 -0.21074
-0.07855 -0.04812 0.05209
-0.34454 -0.02695 0.04208
-0.14347 -0.02459 -0.14330
0.28533 -0.03310 -0.01869
-0.19069 -0.01529 -0.14605
0.05256 -0.00432 0.04880
-0.08614 -0.07884 -0.01189
-0.11803 -0.01986 0.09812
-0.12575 0.00412 0.01541
-0.18497 -0.03821 -0.04164
-0.28850 0.04239 -0.06425
-0.07007 -0.03579 0.01791
-0.28814 0.08532 0.07838
-0.09299 -0.01783 -0.20128
-0.01379 -0.00753 0.02900
-0.13314 -0.00411 0.06039
-0.08425 -0.01813 0.18357
-0.16282 -0.01595 -0.25738
-0.18868 -0.01556 -0.06074
-0.10341 -0.01776 -0.19266
-0.23535 0.06359 -0.06814
-0.21622 0.06504 0.07289
0.14599 -0.08623 -0.00835
0.29870 -0.04100 0.00193
-0.18228 -0.03042 0.04166
-0.15510 -0.05448 0.02054
0.09284 -0.03820 -0.01500
-0.25770 -0.00743 0.03544
-0.01488 -0.01378 -0.08396
-0.13682 -0.01649 0.23448
-0.05465 0.01631 -0.01319
-0.08686 -0.02734 0.03116
-0.35777 -0.04582 -0.01430
0.03299 -0.03042 0.01635
-0.19325 -0.01086 -0.12762
-0.30653 -0.00961 0.03040
-0.33914 -0.03194 0.12448
-0.17220 -0.00763 0.08251
0.05540 -0.00907 -0.04981
-0.18219 -0.05387 0.00293
0.05631 0.00902 0.01991
-0.16173 -0.00683 -0.07836
-0.02869 -0.02050 0.03897
0.05866 -0.00809 -0.03599
-0.25493 0.02884 0.05169
-0.22990 -0.00044 0.03767
-0.18773 0.00586 -0.04037
-0.13699 -0.01664 -0.19601
-0.33884 -0.01628 0.02885
0.03216 -0.03670 0.01811
-0.36873 -0.03410 0.03860
0.13918 -0.03035 0.00761
-0.26327 0.06568 0.06865
-0.11620 0.01533 -0.00736
-0.14626 -0.00599 0.01981
-0.30369 -0.03255 0.07908
-0.27106 -0.00075 0.04432
0.30203 -0.03087 0.01804
-0.08651 -0.07099 0.01061
-0.04193 -0.04476 -0.01217
-0.10729 -0.02419 -0.18572
-0.34689 -0.02659 -0.12173
-0.05631 -0.00089 0.05322
-0.03539 -0.03785 -0.01397
-0.24632 0.02074 0.04769
0.13396 -0.00017 -0.03843
-0.36491 -0.02733 0.03940
-0.14183 -0.00057 0.04003
0.26541 -0.03260 -0.01922
0.00422 -0.03934 -0.01559
-0.32971 -0.02652 -0.08641
-0.27920 -0.00843 -0.01730
0.03451 0.00654 0.02045
0.12284 -0.00420 0.02839
-0.06972 -0.00573 0.08592
-0.32872 -0.02864 -0.03671
-0.18342 -0.00927 0.11276
-0.26610 0.04270 -0.05973
-0.13354 -0.03165 0.14783
-0.13793 -0.01685 -0.06505
0.07908 0.01868 0.01686
-0.17346 -0.01587 0.09013
0.01672 -0.00446 -0.05327
-0.01504 -0.00047 -0.04622
-0.39456 -0.02998 0.12180
0.13652 -0.04012 -0.01225
0.19475 0.00002 -0.03160
-0.05867 -0.03438 -0.02648
-0.11157 -0.02680 0.18651
0.14604 0.04250 0.00395
0.29814 -0.03793 0.01306
-0.34188 -0.03276 0.09469
-0.35336 -0.03250 -0.11830
-0.27400 -0.05174 0.01949
-0.20937 0.01813 0.04531
0.10319 0.02775 0.00372
-0.12241 -0.01214 0.24797
-0.28990 -0.03388 -0.04461
0.22644 -0.01107 -0.02325
-0.17920 -0.00712 0.01572
-0.38814 -0.02952 -0.15395
-0.12274 -0.01729 0.10536
-0.10735 -0.01792 0.11612
-0.11281 -0.01770 0.10919
0.16555 0.00138 0.03464
-0.18249 -0.01557 -0.19753
-0.23795 0.06712 -0.07637
-0.07042 -0.00857 0.14897
-0.06827 -0.00821 0.13979
-0.31920 -0.03283 0.05966
-0.12423 -0.06987 0.00818
0.18848 0.00714 -0.01907
-0.08552 -0.01852 0.15242
-0.16107 -0.01357 -0.27136
-0.08648 -0.00846 -0.15641
0.14557 0.01174 0.00255
0.08191 0.03217 -0.00013
-0.10266 -0.01573 -0.27461
-0.18682 0.02731 0.04982
-0.09331 -0.03785 -0.05271
-0.32124 -0.02714 0.05211
-0.11637 -0.03310 0.18535
-0.13634 -0.05533 0.00557
-0.17908 -0.00742 0.06451
0.22002 -0.04306 0.00044
-0.14128 -0.00928 -0.17319
-0.14606 -0.01005 -0.18962
-0.27552 0.00124 0.04508
-0.26301 0.05928 -0.06718
-0.28185 0.09006 -0.08399
-0.15167 -0.05522 -0.00241
0.38424 -0.01460 -0.00440
-0.25661 0.00540 -0.04225
-0.10841 -0.02489 0.04226
-0.11692 -0.01694 -0.24038
-0.02769 -0.02391 0.01830
-0.36629 -0.02977 -0.00719
0.07044 -0.02816 0.01892
0.04678 0.00899 0.01967
-0.01528 -0.01005 0.08082
-0.09485 -0.06864 0.00964
-0.07855 -0.02137 0.04147
-0.19044 0.02975 0.05089
0.10340 -0.00221 0.04120
-0.05688 -0.00353 0.06117
-0.10565 -0.00566 -0.09380
-0.02231 -0.01701 0.05963
-0.29026 0.05394 0.06436
0.02665 -0.01547 0.01858
-0.04962 -0.01941 -0.09616
0.13912 -0.07072 0.00115
-0.13899 0.00276 -0.01632
0.14855 -0.03030 0.00713
-0.23659 0.06530 0.06758
-0.18107 -0.01348 -0.25778
-0.30034 -0.03720 -0.00127
-0.26824 0.06875 -0.07068
-0.37690 -0.03242 -0.14114
-0.07594 0.01729 -0.01071
-0.01614 -0.01289 -0.02209
0.22657 -0.02858 -0.02040
-0.01413 -0.03896 -0.03560
-0.32722 -0.02693 0.06591
-0.03864 -0.00550 0.06707
-0.18728 0.00100 0.00660
-0.02910 -0.07206 -0.01175
0.04852 -0.00825 0.02816
-0.09182 -0.04837 -0.00258
0.06820 -0.03790 0.01365
-0.06498 -0.01873 -0.05178
-0.23244 0.04256 -0.05842
-0.26939 -0.00978 0.00163
-0.26903 0.06040 -0.06794
-0.04664 -0.01937 -0.07786
-0.12810 -0.01708 0.13665
-0.13172 -0.01695 0.15864
-0.14895 -0.01136 0.22165
-0.10499 -0.01723 -0.10213
-0.29620 -0.02285 0.04261
-0.17599 -0.00768 -0.07851
-0.10364 -0.00596 -0.10136
-0.19139 -0.05305 -0.00974
-0.14999 -0.02632 0.14662
0.02975 -0.00055 0.03724
-0.29347 0.06473 0.07216
0.19848 0.03804 0.00591
-0.27991 0.07518 -0.07826
-0.09648 -0.02490 0.13965
0.11417 0.01229 -0.02233
-0.16675 -0.01078 -0.19002
-0.11797 -0.01319 -0.10080
-0.01647 -0.01723 0.06292
0.21669 0.00326 -0.00347
0.04552 -0.00136 -0.04119
-0.30712 -0.02753 -0.10242
-0.12903 -0.02339 0.18613
0.00815 -0.02620 -0.01636
-0.30513 -0.02641 0.06799
-0.29490 -0.02653 0.05414
-0.07118 -0.01886 0.06700
-0.10830 -0.02729 -0.14868
-0.36376 -0.02234 0.03488
0.34459 -0.00105 -0.00350
0.01557 -0.02615 -0.01982
-0.22878 -0.00423 0.00379
-0.35077 -0.02795 -0.14253
-0.27758 -0.01030 0.03478
0.21076 0.01566 0.01615
0.18783 0.01640 0.02043
-0.07726 -0.06410 -0.00678
-0.29082 0.06684 -0.07150
-0.32223 -0.04060 -0.01814
0.14103 -0.03221 -0.00984
0.04984 -0.00901 -0.05913
-0.10860 -0.01134 0.22730
0.07366 0.01248 0.01923
-0.05992 -0.04397 0.05174
-0.18515 -0.02534 -0.18358
-0.18409 0.03604 -0.05743
-0.14310 -0.01071 -0.20879
0.02505 -0.03913 0.01139
-0.11674 -0.01216 -0.24985
-0.18445 -0.01547 0.19610
-0.14994 -0.01270 0.25516
-0.25522 0.04716 -0.06751
-0.10481 -0.00627 0.10770
-0.11163 -0.00612 0.10191
-0.10404 -0.00663 0.11731
-0.11891 -0.01269 0.26191
-0.19744 -0.05252 0.01015
-0.08230 -0.04432 -0.01831
0.13422 0.02115 0.01580
-0.25372 -0.02650 -0.04024
-0.12215 -0.01704 0.21090
-0.34207 -0.02747 0.13092
0.18067 -0.00567 0.01339
0.24397 -0.03370 0.01746
0.06478 0.00038 0.03341
0.20567 0.03612 -0.00620
-0.23097 0.05632 0.07095
0.06987 -0.02855 -0.01997
-0.11538 -0.01698 0.23918
0.21832 0.02567 -0.01298
-0.09853 -0.01798 -0.06428
-0.12651 -0.01305 -0.09952
-0.34338 -0.03276 0.07220
0.00746 0.00995 -0.01933
-0.26460 -0.00482 0.04284
-0.15935 -0.01013 -0.17810
-0.10512 0.00181 0.03961
-0.37009 -0.03595 0.01011
-0.08544 -0.00572 -0.09373
-0.03932 -0.00508 -0.06538
-0.25212 -0.00985 -0.01109
-0.01309 -0.08170 0.00351
-0.23675 0.02395 0.04878
-0.20970 -0.00540 0.01689
-0.08673 -0.02833 -0.04567
-0.23312 0.02230 -0.04911
-0.06221 -0.00857 -0.02289
-0.36496 -0.01566 -0.02832
0.19265 -0.00177 -0.02668
-0.27400 -0.01038 0.01055
0.05961 0.01388 -0.01938
0.06794 0.02291 -0.01495
-0.21324 0.03571 0.05344
-0.18364 -0.01559 0.13632
-0.12318 -0.01727 -0.09883
-0.11524 -0.01755 -0.08458
-0.09390 -0.08436 -0.04185
0.33205 -0.03867 -0.00700
-0.19591 0.00971 -0.04221
0.11775 0.01842 -0.02044
-0.31421 -0.03284 -0.04782
-0.04580 0.02453 0.00416
0.16151 0.00022 0.00428
-0.34759 -0.04846 -0.01600
-0.28415 0.06909 -0.07582
-0.11728 -0.00147 -0.05449
-0.11709 -0.01720 -0.20765
0.02939 0.01556 -0.01781
0.36556 -0.00769 0.00407
-0.11786 0.01206 0.00889
-0.09513 -0.08396 0.04630
0.01730 -0.01901 0.03395
0.01476 -0.02146 -0.03491
0.13811 -0.05632 0.00146
0.01474 -0.03420 -0.01549
0.13230 -0.00663 0.02359
-0.16504 -0.01603 -0.13419
-0.17857 -0.01572 -0.15462
-0.35776 -0.01421 -0.01410
-0.15677 -0.01388 -0.18918
0.13078 0.00659 0.02698
-0.24078 0.08315 0.07635
-0.27865 -0.04858 -0.03465
-0.17515 -0.01706 0.04953
-0.10890 -0.05433 -0.00724
-0.12598 -0.01709 0.18124
-0.13488 -0.01671 0.19479
-0.34492 -0.03916 -0.00677
-0.07597 -0.04248 0.01666
0.10743 -0.03930 0.00908
-0.11864 -0.02240 0.18608
0.16629 -0.06720 0.00085
-0.15522 -0.03233 0.18965
-0.09585 0.00099 -0.04731
0.11082 0.02979 0.01195
-0.06646 -0.05191 -0.01646
-0.20460 0.04476 0.06576
0.20561 0.01772 -0.00980
-0.16373 -0.01600 0.20848
-0.15534 -0.01615 0.21171
-0.35675 -0.02792 0.05632
0.15046 0.01891 0.01762
-0.06682 -0.05132 0.05020
-0.31764 -0.02660 -0.07320
-0.31004 -0.02661 -0.06581
-0.28385 0.06143 -0.06919
-0.13740 -0.01698 0.27201
0.08622 0.02770 -0.01209
-0.22925 -0.00465 -0.04510
-0.11680 -0.01751 0.08895
-0.10951 -0.00858 -0.16458
-0.09772 -0.00775 -0.14417
-0.13810 -0.01677 -0.11716
-0.14253 -0.01664 -0.11239
0.12113 0.02540 -0.01580
0.34786 -0.02128 -0.01750
0.02924 -0.02164 0.01998
-0.09411 -0.01815 0.17373
-0.09980 -0.01776 0.19885
-0.19235 -0.01069 -0.27615
-0.04287 -0.00829 0.11623
-0.27657 -0.04463 0.00247
-0.05530 -0.03642 0.03374
-0.06595 -0.03925 0.05018
-0.21689 0.01501 0.04412
-0.08550 -0.03020 -0.10382
-0.24107 -0.05128 -0.01562
-0.33507 -0.02207 -0.03556
-0.19490 -0.00877 0.05640
-0.07253 -0.01835 0.16428
-0.06393 -0.02781 -0.03514
-0.32250 -0.03847 0.03119
-0.16130 -0.01613 0.09365
0.10690 0.01983 0.00975
0.01484 -0.04094 -0.02915
-0.21301 -0.02476 0.04180
-0.03830 0.01605 0.01321
-0.22453 -0.04455 0.03700
-0.12473 -0.01003 -0.19859
-0.12287 -0.01033 -0.20564
-0.02116 -0.03186 -0.01745
-0.16940 -0.01588 0.21203
-0.10025 -0.09197 -0.05070
-0.19069 -0.01541 -0.08740
-0.17392 -0.00802 0.04356
-0.24938 -0.04217 0.03909
-0.13742 -0.01225 -0.14462
-0.24622 0.09039 0.08365
-0.27853 0.06298 0.07223
-0.09503 -0.06174 -0.04248
-0.28147 0.06718 -0.06987
-0.04767 -0.04431 0.03552
-0.20307 -0.05219 -0.01730
-0.33155 -0.03258 -0.10510
-0.24557 0.07072 0.07631
-0.16094 -0.01604 -0.22010
-0.09171 -0.07642 -0.04953
-0.12046 -0.01734 0.08373
-0.12593 -0.01715 0.09461
-0.27704 -0.03146 0.07115
-0.18320 -0.01286 -0.03593
-0.33280 -0.03267 -0.00510
-0.05510 -0.03415 0.09736
-0.17602 -0.01076 -0.17551
-0.17786 -0.01171 -0.20370
0.14709 -0.08628 0.00356
-0.16491 -0.03987 -0.04130
0.03086 -0.01423 -0.02129
-0.33443 -0.02679 -0.12173
-0.17314 -0.01019 0.16024
-0.17466 -0.00991 0.14941
-0.08200 -0.02155 -0.04062
-0.28822 -0.02650 0.05663
-0.14780 -0.00673 0.09187
-0.07421 -0.03850 -0.05193
-0.21490 0.01544 0.05327
0.00587 0.02086 -0.01382
-0.32998 -0.01979 -0.01495
-0.17031 0.00012 0.04716
-0.39621 -0.02864 -0.14370
-0.36616 -0.01462 0.03091
0.01161 -0.01329 -0.02029
0.19286 -0.00105 -0.01462
-0.35916 -0.03882 -0.01265
0.12812 0.00100 -0.01676
-0.36012 -0.02677 -0.12549
0.02720 -0.02458 0.01740
0.39797 -0.02816 -0.00072
-0.11369 -0.02649 -0.14112
0.11176 0.01529 -0.01655
-0.10013 -0.01818 -0.09209
-0.13662 -0.04971 0.03622
-0.26175 0.00774 -0.04947
-0.07985 -0.03618 -0.09968
-0.37946 -0.02829 -0.10053
0.09719 -0.03213 0.01774
-0.14105 -0.01663 0.16556
-0.14996 -0.01631 0.20234
-0.01760 -0.01819 -0.07406
-0.11171 -0.00438 0.06760
-0.23748 -0.03205 0.04265
-0.06490 -0.01932 -0.10452
-0.27162 -0.00812 0.01810
-0.34669 -0.04611 0.01073
-0.26935 -0.03182 0.05992
-0.05646 0.00516 0.02931
-0.29828 -0.03149 -0.09289
-0.34554 -0.02758 -0.05433
-0.08743 -0.02778 0.18823
0.02518 -0.03539 -0.03062
-0.06198 0.00593 -0.02626
0.16348 0.01230 -0.02357
-0.13310 -0.01653 0.23879
-0.01028 -0.01337 0.07443
-0.30075 -0.00835 -0.01887
-0.18643 -0.01547 0.14909
0.16461 0.00001 0.01625
0.19658 -0.03128 0.01795
-0.24258 0.01627 0.04553
-0.12802 -0.01672 -0.23330
-0.19621 0.00608 0.04965
-0.12313 -0.03721 0.04091
0.28075 -0.00137 0.01825
-0.27618 -0.05116 -0.02819
0.16564 0.00383 -0.03199
0.01882 -0.03445 -0.01628
-0.11306 -0.02968 0.10130
-0.11153 -0.01774 -0.09465
-0.13299 -0.00843 -0.15526
-0.12086 -0.00767 -0.14037
-0.34104 -0.04160 0.03824
0.16543 0.00956 -0.02522
-0.13784 -0.03693 0.04092
-0.28471 0.04481 -0.06136
-0.05513 -0.01901 -0.12385
-0.30795 -0.05008 -0.03114
-0.08618 -0.01638 0.21653
-0.07282 -0.01874 0.14594
-0.05819 -0.01918 0.11823
0.32409 0.00232 0.00703
-0.05528 -0.05102 -0.02949
0.03210 -0.00922 0.05103
0.00430 -0.00958 -0.03096
-0.27991 0.06913 -0.07656
0.02096 -0.03461 0.01503
0.11805 0.01999 0.01561
-0.18646 -0.00327 0.02474
-0.16377 0.00982 -0.00273
-0.10686 -0.00865 0.16477
-0.16320 -0.02000 -0.18537
0.25859 0.01476 -0.00788
-0.23076 -0.00721 -0.03551
0.03440 -0.00894 0.02605
-0.30551 -0.00799 0.02107
-0.05798 -0.01938 0.09751
-0.08655 -0.06864 0.04048
-0.07556 -0.02336 -0.09806
-0.34223 -0.00976 0.02500
-0.13230 -0.02811 -0.18507
0.00034 -0.02234 0.01568
0.19381 -0.00677 -0.00325
0.02445 -0.00972 -0.05532
0.07463 -0.04135 -0.00962
0.06335 -0.00793 0.03242
0.36933 -0.02592 0.01218
-0.06704 -0.00789 -0.13341
0.26335 -0.03823 0.01430
-0.18096 -0.01206 0.20859
-0.10867 -0.01779 -0.16098
-0.11023 -0.01777 -0.14934
-0.30454 -0.04408 -0.03997
0.18578 -0.00324 0.02426
-0.07688 -0.00318 0.06129
-0.03854 0.02383 0.00634
-0.06977 -0.06029 -0.00200
0.29575 -0.01212 0.02057
-0.19394 0.02818 -0.05119
-0.28053 0.07308 0.07335
-0.36187 -0.02736 0.08554
-0.12318 -0.02669 0.14417
-0.34124 -0.03273 0.05484
-0.16336 -0.01607 0.12360
-0.00608 0.00371 0.02478
-0.18389 -0.00811 -0.07654
-0.12443 -0.01707 0.19765
0.13211 0.03623 0.01086
-0.13221 -0.02791 0.14323
-0.16117 -0.00302 -0.04609
-0.34084 -0.00993 -0.02152
-0.15109 -0.01614 -0.24768
-0.15881 -0.05502 0.00649
0.22656 0.00419 -0.02224
-0.31027 -0.03003 -0.03263
-0.10585 -0.05440 0.00908
-0.26201 -0.03567 0.04241
-0.32610 -0.02683 0.06958
-0.14064 -0.00556 -0.06955
0.19526 -0.03676 -0.01630
0.07556 0.02103 0.01543
-0.00571 -0.01789 -0.01791
0.19642 -0.02975 -0.01968
-0.12770 -0.01682 -0.22217
0.24686 -0.02268 -0.02207
-0.06170 -0.01165 0.16979
-0.04753 -0.06119 0.00070
0.15361 -0.00278 0.02591
-0.04033 -0.01834 -0.06240
-0.06518 0.00950 0.01647
0.29775 -0.04002 -0.00924
0.01166 0.02902 0.00105
-0.28050 0.05925 0.07053
0.00493 -0.02678 0.03604
-0.26970 -0.00784 -0.02189
-0.12755 -0.02099 -0.14305
-0.22224 -0.01888 -0.04176
-0.04709 -0.04853 -0.03385
-0.32910 -0.02748 -0.04358
-0.25857 -0.00064 -0.04167
-0.32029 -0.03280 0.08289
-0.30246 -0.03283 0.04021
-0.32491 -0.03275 -0.09325
-0.18493 -0.00806 0.07169
-0.18352 -0.01276 0.22750
-0.09567 -0.01821 0.05837
-0.28190 0.04265 0.06323
-0.05424 -0.00952 0.14532
0.30955 -0.03965 -0.00848
-0.20069 0.01931 -0.05645
-0.25055 0.07172 0.07655
0.16707 -0.00440 -0.01619
-0.27982 0.09251 0.08414
0.02030 0.01947 0.01418
-0.10509 0.00703 0.01402
-0.15654 0.00925 -0.04405
-0.07142 -0.04958 -0.00796
-0.23353 -0.01040 -0.03411
-0.36301 -0.04061 0.03658
0.14113 0.00408 -0.03198
-0.07548 -0.00965 -0.17378
-0.04406 -0.01916 0.06886
-0.19073 -0.03354 -0.04268
0.16778 0.00201 0.01129
-0.31063 -0.03839 -0.02014
-0.15732 -0.03639 -0.09619
-0.25301 -0.01460 0.03718
-0.00578 -0.07478 0.00474
0.17084 0.02503 0.01802
0.07308 -0.03888 -0.01391
-0.13157 -0.00482 0.06633
0.11562 0.02325 0.01128
0.29732 0.00207 0.01421
0.31311 -0.03024 0.01767
-0.10874 -0.01174 -0.23792
-0.11284 -0.01672 -0.26193
0.03143 0.01191 0.01813
-0.27804 0.01072 -0.05034
-0.07302 -0.01908 0.08314
0.25238 -0.01290 0.02169
-0.18825 -0.00384 0.04558
-0.23451 0.03349 0.06072
-0.30716 -0.05134 -0.02152
-0.09304 -0.00018 -0.05222
-0.15140 0.00516 -0.04402
-0.36496 -0.03227 0.07667
-0.34616 -0.01010 -0.02812
-0.17463 -0.00930 0.13040
-0.17272 -0.00908 0.12666
-0.31005 -0.03285 -0.00023
0.04712 -0.00855 -0.04378
-0.09908 -0.07501 0.04077
-0.00112 -0.03831 0.03329
-0.19514 -0.01222 -0.11115
-0.28233 0.08491 -0.08207
-0.27109 -0.00279 -0.03909
-0.26007 -0.01051 0.00471
-0.30727 -0.05133 0.02478
0.09959 -0.03041 -0.01958
0.12113 0.03996 -0.00134
-0.13593 -0.01682 -0.12381
-0.14483 -0.01654 -0.14043
-0.36029 -0.01158 -0.02535
-0.04711 -0.08502 -0.00650
0.31611 0.00023 0.01233
0.15787 -0.03479 -0.00822
-0.04111 -0.00831 -0.11582
0.21782 0.01874 0.00112
-0.23066 0.02472 0.05694
-0.14994 -0.03935 0.04040
0.05590 -0.02774 0.01885
0.14547 -0.07973 -0.00762
-0.29222 -0.05156 -0.02037
-0.15495 -0.02534 0.15057
-0.12548 -0.01715 -0.06819
-0.16270 -0.01029 -0.17972
-0.16077 -0.01050 -0.18736
-0.07626 -0.05175 0.05054
-0.35887 -0.03014 0.04311
0.32472 -0.03032 -0.01810
-0.14442 -0.01652 -0.17446
-0.14852 -0.01642 -0.17178
-0.03556 -0.01580 -0.12216
0.05182 -0.02438 0.01971
-0.04466 -0.00660 -0.08850
0.15298 0.00993 0.00965
0.00794 -0.01760 -0.02151
0.13578 -0.00187 -0.00033
0.28082 -0.02439 -0.02174
-0.16900 -0.03317 -0.14914
-0.27963 0.04814 -0.06711
-0.10419 -0.02254 -0.18608
-0.25669 0.05139 0.06193
-0.02214 -0.01928 0.01932
0.07918 0.00132 -0.03251
-0.25425 0.03802 0.06210
-0.27134 -0.04081 -0.04171
0.09495 -0.01462 0.00041
-0.08389 -0.00598 -0.09925
-0.13702 -0.01382 -0.10173
-0.14429 -0.01233 0.24789
-0.25107 -0.03653 0.04190
-0.19495 -0.01273 0.11601
-0.13999 -0.02757 0.10650
-0.08657 -0.00900 0.16709
-0.29433 0.08272 -0.08086
-0.27656 0.00791 0.04801
-0.25287 -0.01915 0.04037
-0.19423 -0.00259 0.01021
-0.06702 -0.01888 -0.06751
-0.10252 0.01239 -0.01155
-0.33334 -0.02644 -0.10148
-0.35718 -0.04072 0.03239
-0.00113 -0.01381 0.01847
0.34256 -0.03797 0.00584
-0.13816 -0.03118 0.14255
-0.01993 -0.03858 -0.01338
0.24489 -0.02637 -0.02127
-0.27371 0.08048 0.07944
0.07654 0.00038 -0.03494
-0.20801 -0.05146 0.00688
0.16865 -0.02370 -0.02127
-0.34770 -0.02659 -0.12545
-0.14940 -0.03824 -0.04186
-0.24891 -0.04893 0.00643
-0.25006 -0.05135 -0.01675
-0.13636 0.00101 -0.03077
-0.28095 0.06016 -0.07108
0.02905 -0.03832 -0.01354
-0.23683 0.05171 -0.07013
-0.16417 -0.00950 -0.15430
-0.10150 -0.04245 0.02737
0.16945 0.01246 -0.02336
-0.17133 0.01543 0.05301
-0.33378 -0.03280 0.06690
-0.01743 -0.03157 0.01301
-0.12109 -0.01168 -0.23792
-0.19183 -0.02436 -0.04382
0.09549 0.03369 -0.00052
0.17729 -0.00382 0.01135
-0.34468 -0.02756 0.05305
-0.27552 0.05632 -0.06964
-0.12866 -0.01705 -0.08983
-0.35003 -0.03949 -0.01271
-0.07823 -0.08609 0.00231
-0.16467 -0.01599 0.20090
-0.15271 -0.01619 0.22645
-0.13116 -0.00754 0.13224
-0.13388 -0.00852 0.15601
-0.03439 -0.04397 0.01186
0.01806 -0.03476 0.03269
-0.32513 -0.03183 0.01055
-0.24080 0.04786 -0.06828
0.02189 -0.00887 0.02439
-0.12139 -0.00608 0.09853
0.37090 -0.03602 -0.00074
-0.39572 -0.03129 0.14356
-0.13995 -0.01627 0.25300
-0.34730 -0.03944 0.03408
-0.38403 -0.03060 -0.15223
-0.32592 -0.00974 0.02645
0.01560 0.00640 -0.02110
-0.02233 0.00505 -0.02514
-0.15244 -0.03480 0.14057
-0.27220 -0.01432 0.03817
-0.04272 -0.01937 0.08196
-0.17444 -0.00941 -0.13532
-0.17192 -0.00905 -0.12850
0.09628 0.02744 -0.01355
0.14427 0.00733 0.00779
-0.30983 -0.03166 0.01924
-0.07691 -0.00352 -0.06362
0.20653 -0.02280 -0.02171
-0.05628 -0.03188 0.04616
-0.19263 -0.01534 0.09136
-0.07727 -0.01895 -0.12575
-0.08282 -0.01786 -0.19376
-0.13898 -0.01675 0.11004
-0.13870 -0.01675 0.11378
-0.23070 0.03871 0.05530
-0.37104 -0.03263 -0.12729
-0.08345 -0.01821 0.17931
-0.00117 -0.00768 0.02886
-0.32251 -0.01878 0.00544
-0.15355 -0.04188 -0.09213
-0.23425 -0.05152 -0.01912
0.13089 0.02418 -0.01746
0.13872 0.00642 -0.02849
0.37568 -0.03170 -0.00985
-0.33985 -0.02744 0.05334
-0.09666 -0.01134 0.22100
-0.22956 0.05278 -0.07082
-0.36408 -0.02762 -0.08068
0.22479 -0.00237 0.02398
-0.10387 -0.03176 0.14779
-0.07903 -0.02080 -0.04397
-0.27071 -0.00943 -0.03156
-0.34457 -0.02728 -0.06615
0.17110 0.00940 -0.01915
0.13764 -0.02363 -0.00504
-0.03755 -0.00891 0.11437
-0.10461 -0.01800 0.13514
-0.10936 -0.01777 0.15620
-0.37001 -0.03013 0.15237
-0.07729 -0.00560 0.08681
-0.06249 -0.00545 0.07492
0.11725 -0.05732 0.00915
-0.12924 -0.01222 0.24914
-0.04393 -0.00628 0.07893
-0.09846 -0.00726 -0.13295
-0.10348 -0.00801 -0.15075
-0.08563 -0.03548 -0.09736
0.19688 -0.01260 0.02204
-0.07415 -0.00146 0.05562
-0.18646 -0.05351 -0.00722
-0.06648 -0.00924 0.15698
-0.27721 -0.01476 0.03748
-0.10463 -0.07959 -0.01158
0.17364 -0.00434 -0.02491
-0.31951 -0.03232 -0.10404
-0.04215 -0.06255 -0.00052
-0.25214 0.08266 0.07615
-0.20823 0.02988 -0.06099
-0.05789 0.01588 0.01202
-0.17733 -0.01571 0.25424
-0.06376 -0.01539 -0.17659
-0.35404 -0.04653 0.03240
0.30316 0.00524 0.00942
-0.17155 -0.01591 -0.10349
-0.17948 -0.01574 -0.09795
-0.13933 -0.03188 0.10283
-0.24806 0.06891 0.06962
-0.28681 -0.03252 0.06108
-0.20066 0.02564 0.05793
0.18307 -0.00585 -0.01589
-0.40057 -0.02957 -0.14561
-0.04404 -0.00751 -0.10559
-0.05891 -0.00893 -0.14530
-0.10084 -0.02956 0.14242
0.07778 -0.00795 0.03752
0.02859 -0.00816 0.02862
-0.33258 -0.03949 -0.04038
-0.12754 -0.02166 0.18940
-0.08132 -0.08052 0.05839
-0.09277 -0.07194 -0.04903
-0.11964 -0.03188 0.04189
-0.35042 -0.01521 0.01817
-0.01431 0.01760 0.01364
-0.00134 0.00144 0.03293
-0.28864 -0.05154 -0.01962
-0.10953 -0.01773 0.16783
-0.10516 -0.01778 0.18248
-0.32883 -0.04334 -0.02445
0.21425 -0.01240 0.02205
-0.19396 0.01168 0.05203
-0.36930 -0.02718 0.10700
-0.18512 -0.04540 -0.03854
0.36941 -0.03411 0.00814
-0.13771 -0.00772 -0.13272
-0.14373 -0.00824 -0.14058
0.22725 0.01538 0.00546
-0.09760 -0.07023 -0.05835
-0.31275 -0.02253 -0.01700
-0.08642 -0.06672 -0.04079
0.21512 0.01892 -0.00347
-0.01664 -0.01288 0.04461
0.34114 -0.01032 -0.01623
-0.24485 -0.00824 0.02815
-0.14578 -0.05530 0.00181
-0.17291 0.00619 0.00457
0.07669 -0.00838 -0.02699
0.04013 -0.00585 -0.05574
-0.35443 -0.02812 -0.04240
-0.23688 0.08153 0.08026
-0.18821 -0.01494 0.24452
-0.24845 -0.00042 -0.03942
-0.05437 -0.06606 -0.00546
-0.12652 -0.00975 -0.19071
-0.13537 -0.01005 -0.19529
-0.30158 -0.03173 0.09239
0.14769 0.02477 0.01808
-0.15688 -0.00606 -0.03504
-0.26709 0.01691 0.05226
-0.35218 -0.02452 -0.04202
-0.02372 -0.02164 0.01497
0.19768 0.01644 0.02017
-0.01737 -0.03372 -0.01686
-0.18644 -0.03923 0.19759
-0.16920 -0.03484 -0.04227
-0.33890 -0.04668 -0.03371
-0.37670 -0.03113 -0.08751
0.10974 0.02131 0.00678
0.08492 0.03098 0.00578
-0.10506 -0.03141 -0.14799
0.16867 -0.01711 0.02134
-0.17740 -0.01581 0.07802
-0.21423 -0.05148 -0.01149
-0.03745 0.00431 -0.03204
-0.30337 -0.04539 -0.00780
-0.28416 -0.03268 -0.05136
-0.04598 0.00543 -0.02868
0.04859 0.00151 0.02924
-0.32340 -0.02737 -0.04460
-0.32460 -0.02696 -0.06403
0.02516 -0.01448 -0.02002
-0.21027 0.05580 0.06358
-0.07161 -0.02970 0.10313
-0.19451 -0.02646 -0.19206
0.23245 0.02624 -0.00004
-0.15146 -0.05469 -0.01726
-0.09614 -0.04458 0.05393
-0.04717 -0.01940 0.09206
0.08257 -0.00284 -0.04426
-0.09679 -0.01325 -0.27188
0.01238 0.00556 0.02079
-0.34611 -0.03882 -0.04147
-0.15208 -0.00661 0.03403
-0.19110 -0.04159 -0.04066
-0.16456 -0.03813 0.04058
-0.21884 0.06806 0.07010
-0.18553 -0.01096 -0.16473
-0.26466 0.03214 0.05910
-0.26955 0.02331 0.05503
-0.10891 -0.00725 -0.13299
-0.11040 -0.00710 -0.12877
-0.11082 -0.00744 -0.13731
-0.29981 -0.03019 0.09778
-0.11727 -0.05484 -0.01298
0.16964 -0.00901 -0.02364
0.00563 -0.04191 -0.03047
-0.05953 0.00113 -0.04776
-0.13969 -0.04172 0.10917
-0.33630 -0.01542 0.02595
-0.34979 -0.02747 -0.06349
-0.25783 -0.01878 0.04023
0.14861 0.00154 0.03452
-0.36195 -0.02540 -0.00707
-0.14548 -0.03557 0.10001
-0.20900 0.05447 -0.07093
-0.14188 -0.01645 0.22180
-0.14213 -0.01647 0.21307
-0.21947 -0.04507 -0.03773
-0.28074 -0.02652 -0.05268
-0.11025 -0.08606 0.00168
-0.33071 -0.01746 -0.03003
0.34801 -0.00502 -0.01009
-0.18255 -0.00580 -0.02221
-0.31873 -0.02754 0.11160
-0.24790 0.02628 0.05708
-0.34016 -0.03257 0.10688
-0.10441 -0.02628 -0.18852
-0.15526 0.00212 -0.01371
-0.25846 0.05190 -0.06954
-0.18696 -0.00253 0.01676
-0.11155 -0.05482 -0.01662
-0.03815 0.02381 -0.00761
-0.06784 -0.02950 -0.03086
0.21403 -0.04311 -0.00024
0.16493 -0.05713 -0.00576
-0.12202 -0.03864 0.17972
-0.16667 0.01766 -0.04770
-0.16464 -0.03106 0.14393
-0.09827 -0.03963 -0.03171
-0.25854 -0.03201 -0.04868
-0.02177 -0.01767 0.03773
-0.17770 0.00154 0.00829
-0.34990 -0.04464 0.02576
-0.35894 -0.03255 0.11483
-0.33851 -0.02650 -0.11711
0.13243 -0.00294 0.04092
-0.02069 -0.00826 -0.08311
-0.15718 -0.01606 0.24071
-0.06253 -0.03839 0.04963
-0.37513 -0.01695 0.01407
0.09174 0.03280 0.00087
-0.25308 0.04698 0.05980
-0.19079 -0.01162 0.16663
-0.29111 -0.02677 -0.07935
-0.01437 -0.00515 0.05893
-0.07702 -0.01017 -0.18419
-0.35354 -0.01454 0.02226
0.14624 0.01016 0.00860
-0.08476 -0.00767 -0.02167
0.11168 -0.02425 -0.02138
-0.06883 0.00553 0.02570
-0.13872 -0.00646 -0.09558
0.17906 -0.00097 0.00785
-0.35573 -0.02692 0.09690
0.11921 -0.02523 -0.00939
-0.27032 -0.03177 -0.06270
-0.09025 -0.05675 -0.00219
0.14724 -0.08996 0.00390
0.03396 -0.00724 0.05786
-0.17694 -0.00856 -0.04429
-0.36880 -0.02782 0.08374
-0.22709 0.07257 0.07667
-0.23832 -0.00748 -0.02031
0.26915 0.00198 -0.01862
-0.12259 -0.02736 -0.18979
-0.11845 0.00526 0.01471
-0.14282 -0.01300 0.27394
-0.18214 -0.01570 0.08004
-0.20655 0.05662 0.06888
-0.16906 -0.00707 -0.07287
-0.05048 -0.01916 0.11193
-0.03097 -0.02409 -0.01519
-0.21904 -0.04786 -0.03461
-0.24528 0.06443 -0.07519
-0.30881 -0.03782 0.02296
-0.24749 0.09074 0.08006
-0.08006 0.01671 -0.01080
-0.04988 -0.03184 -0.01281
-0.22349 0.01293 -0.04449
-0.32034 -0.02692 -0.06229
-0.09711 -0.01720 0.22902
-0.08283 -0.01692 -0.20948
-0.36221 -0.02580 -0.03749
-0.36254 -0.03263 0.09663
-0.15319 -0.03142 -0.14270
-0.16301 -0.01345 -0.04189
-0.04158 0.00615 -0.02537
-0.19133 -0.01791 0.04598
0.00425 -0.00793 0.06107
0.05542 -0.04043 0.01019
-0.09954 -0.04628 -0.05496
-0.24495 0.05297 0.06223
0.18360 0.01393 -0.01985
-0.08280 -0.02133 -0.09773
-0.00598 -0.00642 -0.06095
-0.23601 0.06853 0.07561
-0.06286 0.00490 -0.03101
-0.26365 0.00626 -0.04287
-0.05685 -0.00559 0.07398
0.00528 -0.01235 0.05648
-0.26396 -0.04717 0.03477
-0.35457 -0.03260 0.07683
-0.14258 -0.01620 -0.26102
-0.26991 -0.02651 0.04262
-0.27983 -0.02650 0.05674
-0.16445 -0.04620 -0.03896
-0.09267 -0.01842 -0.08572
-0.10330 -0.07081 0.05389
-0.12974 -0.01702 -0.14624
-0.12347 -0.01725 -0.13000
0.21870 0.02477 0.01240
-0.32604 -0.04812 0.03114
-0.09115 -0.04308 -0.05452
-0.35078 -0.03270 0.07617
-0.24166 -0.05106 -0.02631
-0.23412 -0.03320 0.04247
0.28742 0.00264 -0.01636
-0.07130 -0.06339 -0.00505
-0.07165 -0.01242 -0.19113
-0.14811 -0.01634 0.20804
-0.15505 -0.01624 0.17492
-0.08063 -0.00544 -0.08573
0.10116 -0.02592 -0.02100
-0.08587 0.02042 -0.00608
0.20453 0.01866 -0.00620
-0.05472 -0.04104 0.03196
-0.23460 -0.00722 0.03466
-0.03494 -0.02855 -0.01818
-0.18767 0.03027 -0.06068
-0.09620 -0.02410 0.15147
-0.04011 -0.08058 -0.01114
0.14805 0.02681 -0.01852
0.07556 0.03189 -0.00032
-0.31489 -0.01789 0.00504
0.26003 -0.04257 0.00180
-0.09293 -0.03364 0.02181
-0.09442 -0.01603 -0.23438
-0.25382 -0.00633 -0.00197
-0.26879 0.02659 0.05119
0.21184 0.03446 0.00322
-0.02840 -0.02720 -0.01869
-0.36138 -0.03241 -0.13143
-0.29717 0.07748 -0.07630
-0.27758 -0.00800 -0.02639
-0.10316 -0.06328 -0.00100
0.14055 -0.05567 -0.00300
-0.03086 -0.01151 0.11194
-0.26583 0.00197 0.03994
-0.28674 -0.00875 0.01536
-0.13240 0.00111 -0.03308
-0.11090 -0.00613 -0.02594
-0.07507 -0.00492 -0.07245
-0.35224 -0.02680 -0.13149
-0.09682 -0.03099 0.09828
-0.35002 -0.03681 0.04077
-0.35630 -0.04104 0.00799
-0.27324 -0.01175 0.03448
-0.24680 0.05371 -0.06402
-0.13911 -0.08021 -0.00108
-0.18496 -0.01541 -0.23666
0.17734 -0.00534 0.00353
-0.16547 -0.01175 -0.21958
-0.16650 -0.01202 -0.22662
-0.14844 -0.02703 -0.14422
0.01896 -0.00930 -0.02486
-0.24402 -0.03167 -0.03857
-0.05954 -0.00799 0.02910
-0.08131 -0.01887 -0.12269
-0.09131 -0.01853 -0.11498
-0.08452 -0.01878 -0.11346
-0.18475 0.00551 -0.00345
-0.31459 -0.03723 -0.03147
-0.35057 -0.04439 -0.01970
-0.11973 -0.02596 -0.09801
-0.26283 -0.01036 -0.04121
-0.20789 0.03719 0.05420
-0.16088 -0.00651 -0.01824
-0.12873 -0.05502 0.00348
0.12214 -0.00587 -0.04195
-0.21244 -0.00729 -0.03287
-0.32092 -0.03280 -0.08273
-0.33071 -0.03281 -0.07767
-0.31742 -0.00890 -0.02655
-0.03925 -0.03009 -0.04029
-0.37106 -0.03244 0.13438
0.00552 -0.01315 0.02093
0.14069 -0.02995 0.01832
-0.20680 -0.01205 0.04105
-0.27504 0.05896 0.07067
-0.29472 -0.00781 0.02357
-0.09190 -0.00416 -0.06870
-0.37227 -0.03092 0.03857
-0.10030 -0.02714 0.14586
0.18926 0.00282 0.03101
0.14089 0.00342 0.01225
-0.12432 -0.02590 -0.18580
0.12365 -0.03926 -0.01379
-0.22554 0.01048 -0.05192
-0.04872 -0.04799 -0.01376
-0.12619 -0.01078 0.21477
-0.11770 -0.01034 0.20529
-0.24617 0.04197 -0.05859
0.02488 -0.00896 -0.04819
0.08942 0.02576 0.01306
-0.14757 -0.01305 0.04074
-0.30621 -0.04934 -0.01399
0.08683 -0.03424 0.01662
0.12828 0.02043 -0.01390
-0.27148 -0.04836 -0.03480
-0.07646 -0.02268 -0.04094
-0.10522 -0.00844 0.15958
-0.10092 -0.00691 0.12415
-0.05115 -0.00560 -0.07264
-0.06834 -0.03357 -0.02357
-0.10050 -0.01770 0.20241
-0.09881 0.01475 -0.01028
0.26661 -0.01549 -0.02280
-0.18468 -0.01224 -0.20979
-0.02848 -0.00923 -0.10424
-0.27330 0.00951 -0.04468
-0.13163 -0.01137 -0.22934
-0.19306 -0.01287 -0.15573
-0.20053 -0.05167 0.02548
-0.08642 -0.06021 0.04089
-0.16000 -0.00833 0.12407
-0.15863 -0.00772 0.10753
0.13949 -0.03907 0.01267
-0.16306 -0.01172 0.21973
-0.08755 -0.03920 -0.05305
-0.36329 -0.03027 -0.05483
-0.32724 -0.03604 -0.03504
-0.27211 0.07614 -0.07885
-0.00941 0.00051 0.03994
-0.03360 0.00417 -0.03215
-0.35056 -0.04970 0.02437
-0.15781 -0.00849 0.13100
-0.14094 -0.00892 0.16209
0.00188 -0.04234 -0.03096
-0.10862 -0.00655 0.11384
-0.11435 -0.00630 0.10599
-0.16838 -0.01599 -0.08379
0.14175 0.01304 0.01536
-0.10849 -0.01270 0.25394
-0.10488 -0.00476 0.07086
-0.24806 -0.03702 -0.04289
-0.19569 0.02439 -0.04934
-0.33374 -0.04057 -0.01515
-0.07693 -0.03662 -0.01897
-0.08405 -0.00760 -0.13653
-0.08245 -0.00690 -0.11989
-0.24816 0.08774 -0.07944
-0.01503 -0.03640 0.03548
0.30240 -0.00367 -0.01868
-0.15617 -0.05350 -0.03004
0.16223 -0.01555 -0.02277
0.05893 -0.00450 -0.05009
-0.04349 -0.03180 -0.01692
-0.29488 -0.00804 -0.02631
-0.11415 -0.01009 0.19916
-0.22064 0.05853 -0.06582
-0.03450 -0.01718 -0.04032
-0.34412 -0.04995 0.02192
0.11490 0.03293 -0.01223
0.06610 0.02835 -0.00954
0.03481 -0.03164 0.03209
-0.15479 -0.01611 -0.23995
-0.32170 -0.02906 0.11876
-0.13712 -0.03922 0.09366
-0.35469 -0.02722 0.07880
0.10501 -0.05069 0.00894
-0.19659 -0.00150 0.04632
0.10476 -0.02167 -0.02201
-0.13798 -0.01398 0.03938
0.16698 -0.07083 -0.00108
-0.02028 -0.07620 0.00900
-0.18973 -0.00950 0.10564
-0.15631 -0.03078 -0.18487
-0.08942 -0.01823 -0.17344
-0.36123 -0.03264 -0.09578
-0.10233 -0.01014 0.19867
-0.09882 -0.00949 0.18325
0.04129 -0.00797 -0.03449
-0.28755 0.02251 0.05251
-0.17020 0.00998 0.04164
-0.05741 0.02139 0.00746
-0.06196 -0.05260 0.02534
-0.09252 -0.06510 -0.04329
-0.32366 -0.02641 0.08473
-0.36493 -0.02962 -0.05815
-0.03901 -0.01865 -0.06648
-0.02134 -0.02902 -0.01452
-0.14335 0.01361 0.00089
-0.21656 0.01485 -0.05412
-0.34923 -0.03307 0.03689
-0.36700 -0.02695 0.12913
0.09604 -0.00812 -0.04700
-0.14179 -0.01323 0.18964
-0.06973 -0.03251 -0.04778
-0.11227 -0.01185 0.24035
-0.33221 -0.02735 -0.01074
-0.18010 -0.01389 -0.26949
-0.00418 -0.01230 0.03413
-0.01672 -0.04591 0.01859
0.13120 0.01896 0.01962
0.22690 0.00968 0.01895
-0.02650 -0.00437 -0.06068
-0.19322 -0.05282 0.01179
-0.13235 -0.01255 -0.14613
-0.27752 -0.02279 0.04249
-0.09599 -0.06542 0.04104
-0.31465 -0.03077 0.04309
-0.15662 -0.01065 0.19435
-0.15355 -0.01077 0.20073
0.30664 -0.01690 -0.02162
-0.34318 -0.01109 0.01531
-0.13459 -0.00033 -0.04391
-0.04327 -0.00880 0.02400
-0.34421 -0.02658 0.11333
-0.12998 0.01110 0.00784
-0.15777 -0.01607 0.23660
-0.17978 -0.04861 0.03498
-0.32563 -0.04282 0.02186
-0.13950 -0.00598 -0.02190
-0.09270 -0.00795 -0.14755
-0.07817 -0.00686 -0.11747
-0.06358 -0.00859 -0.14398
-0.14502 -0.00913 -0.16508
-0.14546 -0.00874 -0.15325
-0.12362 -0.01538 0.27163
0.15327 0.01611 -0.00196
-0.29044 0.05159 -0.06469
0.07924 -0.01803 0.02130
-0.26553 -0.05172 -0.02365
-0.13148 -0.03083 0.09844
-0.13950 -0.02308 0.14692
-0.24441 0.03440 0.06083
-0.03851 -0.01800 0.11745
-0.11049 -0.01284 -0.25938
-0.12550 -0.03092 0.10213
-0.17146 0.00784 -0.00395
-0.28830 -0.01437 -0.00561
-0.07142 -0.00812 -0.14121
-0.06122 -0.00749 -0.12090
0.00906 -0.01174 -0.06542
-0.16681 0.00055 -0.04826
0.02657 -0.02412 0.03366
-0.07993 -0.06502 0.00637
0.00126 0.00241 -0.02940
-0.10189 -0.05491 0.02473
-0.25143 0.09120 -0.08108
-0.19061 -0.00838 0.06838
-0.17028 -0.03259 0.04136
-0.29704 -0.03242 -0.07915
-0.01316 -0.02125 -0.03884
0.03300 -0.01739 0.03442
-0.25758 -0.02691 -0.04860
-0.14490 0.00153 -0.02036
-0.20418 0.00260 0.00009
-0.33371 -0.02168 0.03389
-0.25995 0.06350 -0.06891
0.18732 -0.00798 0.00062
-0.13172 -0.01689 -0.18037
-0.12479 -0.01720 -0.16719
-0.08788 -0.00927 -0.17466
-0.16330 -0.00639 -0.12502
-0.12665 -0.01710 0.06985
-0.25105 0.09114 -0.08481
-0.06831 -0.00949 0.16306
-0.11577 -0.03430 0.10301
0.11804 0.01237 0.02144
0.14079 -0.03639 0.00115
-0.19467 0.01989 -0.04715
-0.06141 0.00954 0.01666
-0.00665 -0.01229 0.04806
-0.05880 -0.06327 -0.00476
-0.15221 -0.05502 0.00918
-0.09553 -0.03116 -0.02762
0.28560 -0.02433 0.02047
0.32488 -0.03924 -0.00643
-0.09090 -0.07608 0.00114
0.13115 -0.00135 0.01416
-0.10152 -0.02895 -0.09829
0.00184 -0.03517 0.01355
-0.13431 -0.03411 -0.18307
0.14638 0.03139 0.01512
-0.08806 -0.01866 -0.10951
-0.09349 -0.01846 -0.11161
-0.08669 -0.01868 -0.12129
-0.33835 -0.02720 0.06237
-0.06232 -0.05274 -0.02312
-0.12364 -0.00091 -0.05039
0.21707 0.01251 0.01918
0.13038 0.01915 -0.00719
-0.08060 -0.00827 0.14853
0.35378 -0.01738 -0.01619
-0.05900 -0.04023 -0.02065
-0.24204 -0.02827 -0.04286
-0.28070 0.01787 -0.04878
-0.06018 0.00257 -0.04296
0.13472 0.01375 -0.00433
0.22452 -0.03757 0.01480
0.21128 -0.00005 -0.03122
0.28794 -0.04080 0.00659
-0.23250 0.04867 0.06751
0.19031 -0.00413 0.01077
-0.24391 0.00609 -0.04933
-0.23704 0.01081 0.04286
0.18149 -0.01871 0.02111
-0.14989 -0.01403 -0.10207
-0.13527 -0.03682 0.10309
-0.10047 -0.00472 -0.07210
-0.08778 -0.00181 -0.05862
-0.11084 -0.03207 0.04117
-0.31792 -0.03370 0.03296
-0.09940 -0.01752 -0.21781
0.03607 -0.02934 -0.01904
-0.11415 -0.05437 0.02914
-0.12506 -0.02025 0.14712
-0.06647 -0.06420 0.00531
-0.27987 -0.00170 0.04256
0.21692 -0.03916 -0.01424
-0.24928 0.06236 0.06662
0.00038 -0.00913 0.02311
0.15230 -0.00034 -0.01318
-0.12182 -0.01692 -0.22925
-0.35938 -0.02060 -0.00853
-0.05175 -0.00656 -0.09400
-0.13854 -0.01677 0.09239
-0.08091 -0.01870 -0.07166
-0.09169 -0.02390 0.03711
0.36571 -0.03659 0.00045
-0.35024 -0.01161 -0.01631
-0.01747 -0.02344 -0.01589
-0.22817 -0.01124 0.04085
-0.17530 0.00760 -0.05136
-0.17804 -0.01586 0.06067
-0.13020 -0.03194 0.14304
0.05536 0.02248 0.01349
0.18519 0.00104 -0.01201
-0.13491 -0.01071 -0.21199
-0.12917 -0.00962 -0.18657
-0.25623 0.09215 -0.08509
0.16290 -0.04848 0.00553
-0.03931 -0.04965 -0.02076
-0.22352 -0.00334 0.03607
-0.14101 -0.02472 -0.04505
0.28591 -0.00560 -0.02081
-0.14987 -0.03365 -0.04260
-0.22896 0.03810 -0.06423
-0.05360 -0.00053 -0.05287
-0.28290 -0.04180 -0.00079
-0.16661 -0.01938 0.17012
-0.28689 0.08648 -0.07873
0.14177 -0.08896 0.00324
-0.10798 0.00352 0.02617
0.24820 0.00178 0.01932
0.12486 0.01352 0.02126
-0.19394 -0.00255 -0.01147
-0.16037 -0.01613 0.15248
-0.15091 -0.01638 0.12868
0.11534 0.00385 -0.01704
-0.36032 -0.01241 -0.01828
-0.24691 -0.00775 0.01851
-0.14579 -0.04042 -0.09342
-0.09837 -0.07832 -0.04176
-0.19136 0.01489 0.04359
0.34909 -0.02640 0.01549
0.00072 -0.00227 0.04686
0.01336 -0.03332 0.01430
-0.29444 -0.02647 0.06163
-0.28497 -0.02654 0.04568
-0.11364 -0.01764 0.14027
-0.11679 -0.01753 0.11492
-0.12343 -0.01726 0.11332
-0.05566 0.00333 0.03821
-0.30019 0.08514 -0.08235
-0.36812 -0.02511 0.03854
-0.15107 -0.01612 -0.25176
-0.11761 -0.02168 0.17940
-0.37426 -0.02150 -0.03516
-0.07242 -0.07198 -0.01247
-0.34934 -0.03274 -0.09263
0.11087 -0.03889 0.00894
0.19318 0.00737 -0.01890
0.29342 -0.02361 -0.02159
0.05595 0.00053 0.03265
-0.14515 -0.01652 0.15874
-0.15447 -0.01628 0.14171
-0.15775 -0.01621 0.10607
0.15468 0.01380 0.02176
-0.11244 -0.08526 -0.00505
0.17317 0.00497 0.02879
-0.04073 -0.01832 0.04832
-0.19618 -0.01434 -0.04073
-0.08983 -0.03071 0.04649
-0.01924 -0.04189 -0.00757
-0.31839 -0.04279 0.03864
-0.30538 -0.02640 -0.08266
-0.24072 0.03781 -0.06376
-0.11553 -0.05475 0.01351
-0.35062 -0.01630 -0.00985
-0.15996 -0.01171 0.22189
-0.29530 -0.00962 -0.03195
-0.18368 -0.00888 -0.10032
-0.01911 -0.00884 -0.02492
-0.13400 -0.02803 0.09441
0.36315 -0.00857 -0.00837
-0.07911 -0.02779 0.14727
-0.19619 0.00194 -0.00524
-0.37000 -0.03214 -0.14342
0.01851 -0.04021 -0.01133
0.11641 -0.00504 -0.03148
-0.05952 -0.01847 0.14570
-0.03637 -0.01882 0.10382
-0.10958 -0.03243 -0.18949
0.14031 -0.01064 -0.02349
-0.21032 0.03198 -0.05292
-0.02920 -0.00618 0.06824
-0.19620 -0.01438 0.07642
-0.10803 -0.08264 -0.00956
-0.36590 -0.01500 -0.02465
-0.26417 0.01716 -0.04792
-0.07709 -0.01712 0.19590
-0.19399 -0.00040 -0.04793
-0.13506 -0.05501 0.02076
0.25407 0.01720 -0.00378
-0.31480 -0.02669 0.06571
-0.10310 -0.02460 0.15136
-0.08313 -0.01806 -0.18676
-0.08991 -0.05096 -0.02689
-0.31723 -0.03280 -0.07859
-0.31268 -0.03280 -0.07554
0.05065 -0.04247 -0.00582
-0.17434 -0.01270 -0.23984
-0.32660 -0.03282 -0.06337
0.20096 -0.04125 0.00893
-0.10401 -0.08650 -0.00084
-0.24591 -0.00902 0.01287
-0.16355 -0.00244 0.03969
-0.22563 0.03761 0.05464
-0.12125 -0.00825 -0.15484
-0.13508 -0.00804 -0.14471
-0.05690 -0.06153 -0.00192
0.14322 -0.00676 0.02322
-0.01877 -0.07275 0.00872
-0.01368 -0.01128 0.03332
-0.13374 -0.01259 0.26293
-0.05061 -0.06292 0.00054
-0.09846 -0.04983 0.03607
-0.21379 0.02057 -0.05677
0.20343 -0.03940 0.01243
-0.27459 0.01557 0.04637
-0.03365 -0.01914 -0.07849
-0.26989 -0.04868 0.03284
-0.09660 -0.06521 -0.03849
-0.12607 -0.02082 0.04609
-0.35354 -0.03564 -0.03722
-0.22692 0.04731 -0.06844
-0.22579 -0.00674 -0.00926
-0.33748 -0.01013 -0.02361
-0.10108 -0.01806 -0.15669
-0.10201 -0.01813 -0.12008
-0.14956 -0.00865 -0.14615
-0.14883 -0.00822 -0.13420
-0.06888 -0.00607 -0.09532
-0.07346 -0.00550 -0.08337
-0.16427 -0.01175 0.14492
0.31238 -0.02029 -0.02116
-0.22330 -0.03531 -0.04286
-0.07140 -0.04030 0.01726
-0.08142 -0.00585 0.09429
-0.27662 -0.04979 -0.01158
-0.21020 0.03246 0.06083
-0.25232 0.05142 -0.06954
-0.14104 -0.00338 -0.05629
-0.10547 -0.04462 -0.00132
0.00912 -0.03196 -0.01754
0.10906 0.02104 -0.00750
-0.12799 -0.01489 0.14319
-0.16887 -0.00496 -0.05244
0.17664 0.00467 -0.01846
-0.18235 0.00149 -0.03831
-0.20308 -0.00423 -0.01465
-0.19588 -0.01159 -0.09306
-0.19860 0.03012 -0.05210
-0.08528 -0.03385 -0.04937
-0.25813 -0.03239 0.04117
-0.21689 0.06117 0.07245
0.18435 0.00345 -0.01600
-0.17575 -0.01586 0.06959
0.16525 0.03149 -0.01645
0.16813 0.01326 -0.01957
-0.07183 -0.01121 0.18684
0.13435 0.01271 0.01178
-0.12630 -0.01246 0.25553
-0.11677 -0.03713 0.19533
-0.12787 -0.01476 0.27600
-0.16871 -0.01274 -0.24626
-0.33970 -0.03185 -0.12707
-0.39952 -0.02928 0.13495
0.09889 0.01870 0.01800
-0.22723 0.04873 0.06769
0.31407 -0.01462 -0.02094
-0.06371 -0.04074 -0.05220
0.18550 -0.02245 0.02042
-0.01416 -0.00830 -0.02691
0.26767 -0.03644 0.01584
-0.04378 -0.00698 0.09437
-0.20600 -0.02364 0.04204
-0.16032 -0.01615 0.09957
-0.10957 -0.06738 0.00867
-0.04178 -0.01659 -0.13234
-0.02731 -0.07320 0.01010
-0.20855 -0.05190 -0.01390
-0.04273 -0.00728 -0.09987
-0.13031 0.00796 -0.01126
-0.00498 -0.01154 -0.04742
0.31423 0.00232 -0.01155
-0.01854 0.00465 0.02437
0.21139 0.01867 -0.00592
-0.08959 -0.07055 -0.04361
-0.08372 -0.07390 0.04970
0.05295 -0.00548 0.05250
-0.36055 -0.01701 -0.01637
-0.13683 -0.01681 0.07068
-0.11541 -0.08222 -0.00907
-0.26688 0.05665 0.06473
0.04559 -0.04082 -0.01049
-0.09798 -0.03024 0.04651
-0.13263 -0.01482 0.14319
-0.06049 -0.04279 0.01807
-0.16660 -0.02545 -0.14936
