-0.16467 0.06029 -0.16605
-0.03022 -0.04045 0.05353
-0.23185 -0.11592 0.16370
-0.30783 0.02977 -0.18179
-0.27313 0.02623 -0.18246
-0.29751 0.10284 -0.14267
-0.40728 -0.03039 -0.14283
-0.19942 -0.04960 -0.15663
-0.15298 -0.06151 -0.11924
-0.15655 -0.06151 -0.09297
-0.36685 0.05864 0.15644
0.06978 0.03140 -0.04172
-0.29772 -0.12932 -0.16713
-0.32611 -0.05899 0.17921
0.25129 -0.12342 -0.15265
0.11894 0.09562 0.11977
0.32611 -0.05675 -0.17185
-0.31492 -0.04409 -0.15477
-0.39364 -0.10499 -0.15375
0.16375 -0.05391 -0.03186
-0.26412 -0.00404 -0.16946
-0.09696 0.01975 0.14782
-0.09548 0.01443 0.14777
-0.09687 -0.01758 0.14514
-0.09528 0.03318 0.14918
-0.32896 -0.08841 0.17176
0.09921 -0.04099 -0.18180
-0.00720 -0.03790 -0.18243
-0.13141 -0.04111 -0.18184
0.09776 0.01822 -0.18382
-0.13172 0.02075 -0.18356
0.01128 0.02018 -0.18358
-0.29485 -0.10741 0.15526
0.07574 -0.02589 0.18431
0.08920 -0.02995 0.18376
-0.18521 -0.00684 -0.18558
-0.42878 -0.03905 0.06157
0.16284 0.01492 0.18426
-0.36854 -0.10081 -0.17782
0.31446 0.03921 0.17644
0.23286 -0.04335 -0.15670
-0.19082 -0.04421 0.03675
-0.18953 -0.03244 0.02255
-0.19107 -0.04649 0.02609
-0.35219 0.02793 0.18214
-0.07271 -0.06151 -0.04009
-0.35505 -0.03980 -0.17693
0.22606 -0.02887 -0.14130
-0.31409 -0.11416 0.16239
0.28078 -0.15059 -0.14059
0.05841 0.06644 0.07609
-0.36960 0.01759 0.12759
-0.25175 0.01759 0.11393
-0.28917 0.01759 0.12029
-0.25532 0.01759 0.10196
-0.34812 0.01759 0.14575
-0.28458 0.01759 0.10742
-0.26448 0.01759 0.09701
-0.30052 0.01759 0.11485
-0.29071 0.01759 0.12939
-0.33589 0.01759 0.12031
-0.35833 0.01759 0.11024
-0.30954 0.01759 0.12726
-0.34618 0.01759 0.13257
-0.26093 0.01759 0.11257
-0.27873 0.01759 0.09703
0.11804 -0.05087 -0.17935
0.40906 -0.05567 -0.08965
0.37669 0.04887 0.06624
-0.34043 -0.09378 -0.17874
0.21791 -0.02542 -0.12071
0.20214 -0.04964 0.13336
0.10500 0.01964 -0.12381
0.10414 0.01974 -0.12998
-0.19249 -0.09031 -0.17777
-0.19287 -0.09317 -0.16142
0.27568 -0.00632 -0.15041
-0.24980 -0.00502 0.13225
0.27053 -0.01415 -0.12115
0.32868 -0.08686 -0.13629
0.41901 0.01759 -0.06090
0.21580 -0.07019 0.16548
0.30732 0.05845 0.14720
0.30089 0.05896 0.14957
0.20676 -0.00424 0.18175
0.21532 -0.01428 0.14714
0.18877 -0.00424 -0.18515
-0.27545 -0.05338 -0.15844
-0.23539 0.12341 -0.13445
-0.27617 0.11906 -0.13619
-0.28316 0.10619 -0.14133
-0.27385 0.12987 -0.13186
-0.26196 0.14297 -0.12663
-0.24658 0.13930 -0.12810
-0.41687 -0.02045 -0.01797
-0.19412 -0.07633 0.15992
0.38222 -0.11202 0.14053
-0.12689 -0.04578 -0.15064
-0.38056 -0.02064 0.02862
0.20128 0.07201 0.13530
0.24635 0.06612 0.14160
-0.22623 -0.03867 -0.18642
-0.23733 -0.12938 0.12221
-0.19062 -0.05115 0.15419
-0.17864 0.02845 0.15419
-0.17879 -0.01580 0.15419
-0.15944 -0.05679 0.15419
0.25148 -0.13941 0.14512
0.12278 0.02907 -0.18192
0.28333 -0.11156 -0.16501
-0.09525 -0.04945 -0.04142
0.30962 -0.02721 -0.15760
-0.35858 0.00264 0.17815
-0.31895 -0.10884 -0.14954
-0.35871 0.05126 0.17135
-0.03946 -0.02276 -0.04852
0.29851 -0.12033 0.18092
-0.24043 -0.14402 0.12660
0.23894 -0.13491 -0.14339
0.30840 -0.05317 0.17587
0.28690 -0.14392 -0.17825
-0.17459 -0.05484 -0.17693
-0.39104 -0.11322 0.15662
0.21321 -0.06212 -0.12105
0.22052 -0.06205 -0.12105
0.09252 0.07551 -0.07940
0.34389 0.05851 0.04787
0.33466 0.05967 0.04455
0.43051 0.00825 0.04419
0.02154 -0.05157 -0.17915
-0.09219 -0.05170 -0.17913
-0.27167 -0.05498 0.16268
0.07178 0.15022 0.02785
0.21163 -0.03704 -0.16316
-0.01921 -0.02883 0.05024
-0.26322 -0.05958 -0.16425
-0.22451 -0.09040 0.15411
0.08779 0.07035 0.07616
-0.21047 -0.06822 -0.16650
0.08727 0.02593 -0.01151
0.38083 0.03981 -0.09807
-0.27245 -0.05239 -0.15146
-0.27339 0.04342 -0.17819
-0.23229 -0.12685 -0.18029
0.42826 0.00895 -0.06129
-0.33907 0.07021 -0.15894
-0.23900 -0.05237 0.15528
-0.26494 0.00134 -0.18538
0.19665 0.07599 -0.03143
-0.08354 -0.07440 -0.06857
-0.05439 -0.07440 -0.06822
-0.10981 -0.07440 -0.08931
-0.11885 -0.07440 -0.07709
-0.06587 -0.07440 -0.06482
-0.04349 -0.07440 -0.05345
-0.07382 -0.07440 -0.08958
-0.09617 -0.07440 -0.10775
-0.06456 -0.07440 -0.05418
-0.12252 -0.07440 -0.05315
-0.05682 -0.07440 -0.04262
-0.12707 -0.07440 -0.11194
-0.08925 -0.07440 -0.05380
-0.12539 -0.07440 -0.12014
-0.06283 -0.07440 -0.04234
-0.08840 -0.07440 -0.09109
0.31109 -0.12537 0.17749
0.07507 0.05655 -0.00126
0.09120 0.02334 -0.05880
0.22136 -0.06962 0.15146
0.09538 0.08153 0.03241
-0.15076 0.08752 -0.10187
0.32936 -0.09071 0.16807
-0.19648 -0.09970 -0.14544
-0.08438 -0.03419 0.05364
0.09118 0.07517 -0.08480
-0.22120 -0.11330 0.18591
0.16173 -0.01771 0.07262
0.15954 -0.01265 0.03971
0.16315 -0.02098 0.05551
-0.03150 -0.06478 0.04233
-0.01208 -0.06872 0.04286
-0.00470 -0.07198 0.04321
-0.03800 -0.05158 0.04118
-0.03095 -0.05591 0.04161
0.19692 0.07563 -0.04534
-0.41230 -0.03125 0.13358
-0.39932 0.06425 -0.09098
-0.32455 -0.09610 0.15700
0.21487 -0.06356 0.15146
0.09837 0.07094 -0.15692
0.09317 0.05881 -0.16731
0.07429 0.05107 -0.17395
0.08466 0.04949 -0.17531
-0.02067 0.05640 -0.16939
-0.00806 0.05749 -0.16845
0.06059 0.05563 -0.17005
-0.03433 0.05102 -0.17399
0.03818 0.05831 -0.16775
0.28587 -0.03108 0.13931
0.28369 -0.04954 -0.15844
0.31471 -0.10874 0.12110
-0.02556 -0.05184 -0.04014
-0.06706 -0.05461 -0.04037
-0.02475 -0.06808 -0.04147
-0.09504 -0.06284 -0.04104
-0.06392 -0.06656 -0.04134
-0.40465 0.07583 -0.01222
-0.40533 0.07351 -0.02827
0.26600 -0.06450 -0.16687
-0.34392 -0.06576 0.15890
0.37200 0.05086 -0.02952
0.21552 -0.07186 0.15547
0.20165 -0.10820 -0.16644
-0.25498 -0.04820 0.15844
0.21695 -0.03249 -0.16096
-0.18903 -0.01403 0.18537
-0.29475 -0.14786 0.17715
-0.30561 0.10107 0.14352
-0.34475 0.12399 0.06417
-0.33277 0.13302 0.05792
-0.10744 -0.04198 0.13927
-0.40529 -0.02293 0.14611
0.26530 -0.04947 0.15844
-0.35705 -0.04819 0.17692
-0.35306 -0.03199 0.17692
0.26510 -0.13862 0.14594
-0.28469 -0.00401 0.13966
-0.28827 -0.00414 0.17648
0.08353 0.10216 0.17390
-0.13614 0.05318 -0.04788
-0.40318 0.07303 -0.06152
-0.25643 -0.15401 0.16791
-0.33676 -0.02731 0.18410
-0.20049 -0.01559 -0.18522
0.11808 0.07299 0.05613
-0.35435 -0.06208 0.17840
-0.09808 0.01903 -0.14311
-0.30736 0.15140 0.01916
0.03969 0.01929 -0.02102
-0.38306 0.03162 0.09629
0.19522 -0.00619 0.18549
0.24545 -0.00279 -0.18271
0.24793 -0.02284 -0.16244
-0.23010 -0.06369 -0.16979
-0.17317 0.08698 0.14905
0.09682 -0.05885 0.17854
-0.05967 -0.05885 0.17937
-0.28695 -0.07669 -0.16425
0.36099 0.02172 -0.15102
0.21337 -0.12315 0.14510
0.35557 -0.01629 0.17027
-0.05167 0.07656 -0.15322
0.09177 0.08742 0.15411
0.24514 -0.09701 0.16425
0.23060 -0.10726 0.16724
0.07808 0.14288 -0.07724
0.10869 0.12475 -0.07685
0.10718 0.12668 -0.07112
-0.31739 -0.11410 0.12247
-0.28744 -0.01697 -0.12058
0.29701 -0.12174 -0.15895
-0.42876 -0.03565 -0.07947
0.17796 -0.08825 0.13255
0.17834 -0.08224 0.15180
0.08499 0.09172 0.18938
0.20226 -0.05515 -0.16249
0.27588 0.06675 -0.06198
0.22826 0.07258 -0.06284
-0.26963 -0.09767 -0.16502
0.33165 -0.07892 0.16651
0.33165 -0.07984 0.12114
0.41577 -0.09929 0.06594
0.33011 -0.06717 0.12442
0.31184 -0.09810 -0.18723
0.31669 0.06066 0.09829
0.25320 0.06835 0.09866
0.27634 0.06541 0.10168
0.39454 0.03648 0.03156
0.13079 0.01260 0.03226
-0.31907 -0.05722 -0.16828
-0.21054 -0.03091 0.15774
0.32037 -0.10578 0.12700
0.11634 -0.09644 0.00535
-0.25061 -0.05319 0.16029
-0.42363 -0.11608 -0.05374
-0.37021 -0.07776 0.17692
-0.42101 0.00070 -0.11215
0.19816 -0.08944 0.16243
0.01895 0.02839 0.18207
0.07684 0.02940 0.18187
-0.08348 0.03003 0.18179
0.40684 0.02394 -0.05500
0.19412 -0.07622 0.13639
-0.23256 -0.01144 0.17738
-0.23863 -0.00905 0.17007
-0.11460 -0.04319 0.04636
0.14223 0.00599 0.06324
0.14206 0.00612 0.10531
-0.28015 -0.02030 0.17218
-0.32943 -0.07386 -0.13303
0.25433 -0.03626 -0.15146
0.22976 -0.05389 0.15408
-0.37744 -0.11337 0.17174
0.31559 0.02452 -0.18219
-0.16291 -0.05175 0.04380
-0.16290 -0.05178 0.06779
-0.16260 -0.05341 0.05760
-0.16186 -0.05749 0.09567
-0.04748 -0.04045 -0.08223
-0.03987 -0.03944 -0.08135
-0.01619 -0.03631 -0.07208
-0.01560 -0.03623 -0.06096
-0.03353 -0.03860 -0.07772
-0.30173 -0.14444 -0.17727
-0.33741 0.01091 0.18472
-0.29059 0.00771 0.18497
-0.33828 0.07554 -0.14999
-0.20919 -0.07765 -0.16053
-0.11873 -0.03929 -0.04989
-0.38871 0.03439 0.10941
-0.05945 -0.05043 0.17951
0.02026 -0.05396 0.17843
0.09308 -0.05075 0.17939
-0.02402 -0.05445 0.17828
0.18179 -0.07197 0.13164
0.37273 0.01759 0.14408
-0.34277 -0.06089 -0.14208
-0.28735 -0.02459 -0.15012
0.22160 -0.09435 -0.15146
-0.41326 0.04714 0.04946
-0.33761 -0.04285 0.16652
0.42219 -0.07697 0.06970
-0.23624 -0.10849 -0.15844
-0.11296 -0.01593 0.13950
0.04174 0.07571 -0.15356
0.03481 0.07604 -0.15343
-0.27606 -0.11473 -0.15670
-0.30604 -0.09186 -0.15670
-0.24361 -0.02510 -0.15440
0.00719 0.03713 -0.17693
-0.09077 0.02546 -0.17693
0.02138 0.00420 -0.17693
0.11165 0.01895 -0.17693
-0.03151 -0.00482 -0.17693
0.07383 0.01911 -0.17693
0.06058 0.02774 -0.17693
-0.02651 0.00451 -0.17693
-0.04746 0.02669 -0.17693
0.02182 0.03025 -0.17693
0.04344 -0.02929 -0.17693
0.07484 0.02559 -0.17693
0.03072 0.00556 -0.17693
0.00236 0.01926 -0.17693
0.05679 0.04338 -0.17693
0.01708 -0.00362 -0.17693
0.01182 0.00046 -0.17693
0.07998 -0.02474 -0.17693
-0.12531 0.04128 -0.17693
-0.00733 0.01816 -0.17693
-0.14273 0.03509 -0.17693
0.04992 0.01955 -0.17693
-0.10597 0.02851 -0.17693
0.05851 0.01580 -0.17693
0.01765 0.02208 -0.17693
0.07910 -0.03078 -0.17693
0.09491 0.00585 -0.17693
0.10263 -0.02638 -0.17693
-0.06201 0.01428 -0.17693
0.11606 -0.04042 -0.17693
-0.08003 0.04476 -0.17693
0.08230 0.04062 -0.17693
-0.02018 0.00129 -0.17693
0.01254 0.02788 -0.17693
-0.03844 0.02957 -0.17693
-0.01944 0.04462 -0.17693
0.22397 -0.07692 0.16546
-0.34148 -0.05684 -0.13749
0.32402 -0.02944 0.18377
-0.28556 -0.09610 0.16254
-0.07435 -0.04391 -0.13826
0.08296 0.02932 -0.08320
0.18660 0.02255 0.18316
-0.20542 -0.12018 0.15400
-0.39011 0.07876 0.09808
-0.27043 -0.06793 0.16966
-0.23386 -0.10185 -0.15844
0.29741 -0.03723 0.17270
-0.32885 -0.09016 -0.14748
0.34586 -0.07393 -0.16936
0.00339 -0.03521 0.12892
-0.14323 0.09722 0.10827
-0.25744 0.14502 0.12593
-0.24529 0.13144 0.13136
-0.25088 0.13176 0.13123
-0.27218 0.13122 0.13145
-0.22784 0.13623 0.12945
-0.24828 0.12750 0.13293
-0.10061 -0.03874 -0.09567
-0.10119 -0.03631 -0.10496
0.17719 -0.09814 0.14396
0.08530 -0.06931 -0.03680
-0.14674 -0.06910 -0.03680
-0.13337 -0.06397 -0.03680
0.02649 -0.06697 -0.03680
0.33457 -0.02573 0.18004
-0.28582 -0.10315 -0.16635
0.29550 -0.14094 -0.13406
0.19464 -0.08440 0.17510
-0.38108 0.09775 0.07061
-0.36732 0.10784 0.06800
-0.24943 -0.02540 0.14801
-0.08332 0.00604 0.04144
-0.09599 -0.05339 0.04859
0.15535 0.08903 0.10644
0.17601 0.07950 0.09830
0.25801 -0.05032 -0.16995
-0.24636 -0.00746 0.13843
-0.38683 0.07966 -0.10120
0.06094 0.07339 0.10227
0.31146 -0.05969 -0.17927
-0.41023 -0.03164 0.03625
0.23410 -0.12191 -0.16439
-0.42170 -0.12041 0.07197
0.21458 -0.02394 -0.18504
-0.31779 -0.04589 -0.12247
-0.14202 -0.01433 -0.18546
-0.06450 -0.01216 -0.18548
-0.04744 -0.01319 -0.18544
0.40226 0.02611 0.07073
-0.40230 -0.11363 0.13853
0.32441 -0.09629 0.17931
-0.13258 0.04516 -0.17767
-0.06597 0.04369 -0.17812
0.25759 -0.00730 -0.17883
-0.24700 -0.03671 0.15265
0.18107 -0.05982 -0.15918
0.07605 0.04944 -0.14130
-0.25542 -0.07013 -0.16287
0.10652 0.12957 0.00421
0.15361 0.10158 0.01140
0.13573 0.11220 0.00402
0.14974 0.10387 0.01457
0.13106 0.11498 0.00536
0.16097 0.09720 0.00373
0.18899 0.08054 0.02058
0.21525 -0.06559 -0.15570
-0.05233 0.15131 -0.12333
0.33119 0.06007 -0.05060
0.32823 0.06047 -0.04375
0.35592 0.05229 0.10217
-0.23367 0.01432 0.18433
-0.37384 0.09475 -0.09766
-0.31783 0.13024 -0.10729
-0.35925 0.04495 0.17686
0.35574 0.01175 0.16685
0.26284 -0.04675 -0.16900
0.21413 -0.03781 -0.12909
0.20389 -0.10834 0.12250
-0.06838 -0.03917 -0.05015
0.12199 0.01619 0.05352
0.11229 0.01841 0.11900
0.26852 -0.11417 0.16530
-0.41461 0.02915 0.08133
0.27966 -0.11572 0.15844
-0.16630 0.05152 -0.17357
0.26728 -0.08590 0.16649
-0.33801 0.03404 0.18076
-0.32722 0.03161 0.18136
0.08844 0.02515 0.11624
0.08720 0.02597 0.10702
0.22604 -0.04616 -0.15146
0.28960 -0.07867 -0.15844
0.09103 0.09303 0.16090
-0.27056 -0.10269 0.16122
-0.31222 -0.02030 0.17613
0.15240 -0.02354 -0.18460
0.19107 0.07922 0.04216
0.17942 0.08579 0.05236
0.17405 0.08936 0.04152
0.22363 -0.12821 -0.14774
0.34476 0.02036 0.16461
-0.10061 -0.04527 0.18082
0.03033 -0.04984 0.17966
-0.08240 -0.04652 0.18050
-0.24240 0.08436 0.15016
0.21965 -0.05749 -0.15146
-0.37425 0.09434 0.09799
0.05174 0.05126 0.09735
-0.28389 -0.11974 0.15581
-0.23706 -0.05684 -0.15844
0.26411 -0.00289 0.18216
0.21248 -0.09365 0.12105
0.27918 -0.09716 0.12105
0.30195 -0.10028 0.12105
0.18166 -0.09884 0.12105
0.38596 0.04423 -0.05264
-0.37647 0.01862 0.16800
-0.27978 0.13486 -0.12987
-0.37365 -0.00534 -0.17869
0.07628 0.03544 -0.18042
0.00062 0.03593 -0.18031
-0.02839 0.03518 -0.18050
0.26848 -0.05924 -0.16264
0.42335 -0.08169 0.06141
-0.32743 -0.06337 0.13936
0.07780 0.06246 0.04306
-0.30625 -0.08140 0.15509
-0.00177 -0.02694 0.14180
0.28090 -0.05459 -0.16360
-0.41476 0.02333 -0.07250
-0.30352 -0.08404 0.15146
-0.29933 -0.05901 -0.15146
-0.11954 -0.06255 -0.04198
-0.05252 -0.04425 -0.04198
-0.05697 -0.04748 -0.04198
0.42415 -0.09556 -0.01908
0.30546 -0.10115 0.16229
0.27850 -0.13465 0.15067
-0.22032 -0.02662 0.12857
0.23339 0.07209 0.05528
0.28687 0.06540 0.06140
-0.14093 -0.05373 -0.13634
-0.14093 -0.06419 -0.11047
-0.14093 -0.06751 -0.14575
0.19982 -0.12657 0.12907
-0.10490 0.01578 0.08307
-0.10211 0.01000 0.08810
-0.09661 0.05775 0.16822
-0.06586 0.05839 0.16768
-0.18648 0.10469 0.14205
-0.22733 0.10351 0.14250
-0.19556 0.10245 0.14294
-0.24248 0.10329 0.14258
-0.21422 0.09263 0.14686
-0.24380 0.11072 0.13961
-0.21060 0.08415 0.15025
0.24085 -0.10163 0.16615
0.10874 0.09194 0.09140
0.32189 -0.03482 -0.18295
0.26327 -0.13909 -0.16645
0.29927 0.02717 -0.18235
0.26681 -0.12096 0.15146
-0.04816 -0.08489 0.03680
-0.06833 -0.08456 0.03680
0.09463 -0.06986 0.03680
0.05999 -0.07817 0.03680
0.00747 -0.08097 0.03680
0.06802 -0.08457 0.03680
0.09541 -0.08448 0.03680
-0.08608 -0.08853 0.03680
0.05159 -0.07218 0.03680
0.30603 -0.11009 0.15097
-0.19706 -0.05724 0.12409
-0.23358 -0.07055 -0.15549
0.23241 -0.09066 0.15532
0.18767 0.00077 0.18539
0.36960 0.05145 0.05029
-0.30368 -0.12904 0.14094
-0.06955 -0.04533 0.14045
-0.10827 -0.04202 -0.13737
-0.40991 0.02124 0.10902
0.09226 0.10317 0.14081
-0.39313 0.04264 0.13617
-0.28910 0.11510 0.13789
-0.14468 -0.04212 -0.18162
0.00445 -0.04856 -0.17998
-0.37148 0.07263 -0.13319
-0.32663 -0.09717 -0.12134
-0.24837 -0.05354 0.14134
0.10624 0.09080 0.07505
0.14528 0.00361 -0.08972
0.14193 0.00622 -0.06732
-0.11749 0.06745 0.05176
0.10409 0.07859 0.05214
-0.08987 -0.03713 0.18260
-0.14353 -0.03855 0.18234
-0.24401 -0.05442 -0.15640
-0.19506 -0.03460 0.18200
-0.11304 0.12234 -0.13491
-0.13605 0.12741 -0.13289
0.05330 0.08395 -0.15026
-0.02054 0.10357 -0.14242
-0.02411 0.08571 -0.14956
-0.14264 0.12601 -0.13345
-0.08160 0.12762 -0.13280
-0.15725 0.09200 -0.14704
-0.10104 0.10621 -0.14136
-0.11907 0.12652 -0.13324
-0.04162 0.08974 -0.14795
-0.16050 0.07950 -0.15204
0.00764 0.09392 -0.14627
-0.10116 0.08095 -0.15146
-0.12060 0.13497 -0.12986
-0.12516 0.13896 -0.12827
-0.13550 0.11379 -0.13833
-0.15308 0.13873 -0.12836
-0.06854 0.09810 -0.14461
-0.09667 0.12861 -0.13241
-0.07227 0.08554 -0.14963
-0.08313 0.09068 -0.14757
0.16456 0.07413 -0.12833
0.24545 -0.00884 -0.18090
-0.41588 -0.11315 0.10384
-0.11877 0.01775 -0.18397
-0.02814 0.01350 -0.18451
0.01280 0.01362 -0.18447
0.32001 0.01748 -0.18261
-0.41108 -0.10435 -0.12038
0.19970 -0.02671 -0.15005
0.29436 -0.07749 -0.15670
0.41758 -0.03663 -0.05132
-0.21608 -0.10314 0.12388
-0.34981 -0.07175 -0.18070
-0.41571 -0.08468 -0.11067
-0.26725 0.15529 0.02316
-0.25287 0.15529 0.00871
0.37316 -0.09981 0.15175
0.09165 0.07763 0.05813
-0.21744 -0.05426 -0.18450
0.08777 0.04866 -0.12688
0.28400 -0.05165 -0.15146
0.33533 0.05904 -0.08023
0.23536 0.07161 -0.06865
0.22853 0.07243 -0.06913
0.40117 0.03012 -0.03394
0.40736 0.02418 -0.01859
0.36776 0.05212 -0.01989
0.26709 -0.11071 -0.15146
-0.43236 0.00653 0.01837
0.19975 -0.06519 0.16028
0.29240 -0.01345 -0.16149
0.08504 0.09872 0.16061
0.38159 -0.10059 -0.14373
-0.20227 0.01759 -0.17998
-0.19468 -0.06878 -0.16977
-0.19564 -0.05960 -0.15293
0.32617 0.05085 -0.15655
0.24768 -0.01980 0.16904
0.41264 -0.09689 0.09736
-0.40329 0.06436 -0.07677
0.26851 -0.03992 -0.15334
-0.37335 0.06036 0.14526
-0.21832 -0.01309 0.18535
0.04496 -0.05885 -0.18066
0.29269 -0.05612 -0.15563
0.30363 -0.10056 -0.16204
0.27537 -0.13598 -0.16033
0.37964 -0.00381 0.15362
0.27307 -0.02487 -0.15961
-0.39760 0.08531 -0.06932
-0.25738 -0.06345 0.16511
0.09982 -0.03431 0.18307
-0.05869 -0.03487 0.18302
-0.10728 -0.06367 0.03680
-0.07388 -0.06153 0.03680
-0.09466 -0.06901 0.03680
-0.06046 -0.06260 0.03680
-0.14185 -0.06041 0.03680
0.20536 -0.04639 0.18591
0.37213 0.05082 0.01554
0.28260 -0.05724 0.15146
-0.42236 -0.11687 -0.06900
0.06163 -0.04274 0.18140
0.09092 -0.04379 0.18114
0.04077 -0.04357 0.18120
0.08161 0.07029 -0.07782
0.30466 -0.11225 -0.15176
0.29513 -0.03827 -0.17546
-0.24798 -0.08259 -0.16287
0.36734 -0.05249 0.16018
-0.41366 -0.02413 0.13053
0.20190 0.07421 0.06768
-0.28730 -0.08216 -0.16866
-0.03532 -0.02490 0.04995
-0.42725 -0.03905 0.08410
-0.28769 -0.03952 0.15844
-0.41826 0.00947 0.11429
-0.39751 -0.03118 -0.15726
0.42027 -0.07011 -0.04537
-0.07260 -0.03387 0.14117
0.41852 0.01309 -0.08521
-0.20608 -0.03852 -0.13708
-0.28742 -0.06533 0.16425
0.17860 0.07400 -0.14155
0.27545 -0.11408 0.15146
-0.42534 -0.05173 0.08804
0.15144 0.07418 0.14580
0.23426 -0.00600 0.16121
-0.32212 -0.05052 -0.15956
0.19696 -0.08299 0.15479
0.41262 -0.08891 0.09858
-0.04794 -0.03115 -0.04965
-0.15418 0.10587 0.10488
-0.15418 0.12131 0.11269
-0.33755 0.01374 -0.18441
0.41760 -0.09837 0.03678
-0.25342 -0.11654 0.16621
0.40451 -0.07707 0.11532
-0.24848 -0.04877 -0.15146
0.24785 0.07040 -0.00452
0.31034 0.06269 -0.00783
0.32467 0.06092 -0.03092
0.31776 0.06178 -0.01701
0.33483 0.05967 -0.02909
0.24191 0.07113 -0.00710
-0.16225 0.06856 -0.09963
-0.15286 0.01735 -0.10784
-0.14744 -0.01219 -0.12538
-0.15721 0.04111 -0.11970
-0.16140 0.06391 -0.12037
-0.14626 -0.01864 -0.13441
-0.16108 0.06220 -0.08577
-0.15906 0.05117 -0.13684
-0.16331 0.07433 -0.08596
-0.16326 0.07409 -0.13712
-0.15605 0.03475 -0.13258
-0.15688 0.03926 -0.13504
-0.15019 0.00282 -0.13924
-0.16262 0.07059 -0.12622
-0.15624 0.03580 -0.11074
-0.26084 -0.00634 0.13374
-0.19149 -0.05885 0.03504
-0.18819 -0.05885 -0.00566
-0.17771 -0.05885 0.02553
-0.18665 -0.02408 -0.03680
-0.29632 -0.02554 -0.14987
0.21687 -0.03554 -0.17219
0.19712 -0.12956 0.15112
-0.39325 0.01759 0.07387
-0.40308 0.01759 -0.00355
-0.41022 0.01759 -0.06542
-0.40516 0.01759 0.04114
-0.41279 0.01759 -0.03170
-0.39823 0.01759 0.06564
-0.31861 -0.04476 -0.13818
-0.40851 0.01759 0.12330
0.28147 0.06477 -0.10198
0.26526 0.06676 -0.10152
0.25792 -0.10205 0.16229
-0.20904 -0.12381 0.13682
-0.39697 -0.02297 0.03310
0.19595 -0.06582 -0.16709
-0.36101 0.11433 -0.04980
-0.34752 0.12358 -0.05020
-0.28915 -0.11769 -0.16910
-0.41024 0.05539 -0.04971
-0.37598 0.07159 0.12833
-0.15526 -0.06151 -0.03878
-0.15619 -0.06151 -0.04536
-0.15211 -0.06151 -0.06911
0.40315 -0.11554 0.10946
0.35850 0.04760 0.12130
-0.04652 -0.02285 -0.00556
-0.01042 -0.04819 -0.07781
-0.38093 -0.09362 -0.16911
0.10684 0.07035 0.06577
0.14714 0.00215 0.00360
0.14312 0.00530 0.03531
-0.08862 -0.05023 0.15187
-0.07902 -0.06044 0.15019
-0.06777 -0.05445 0.15084
-0.01209 -0.06370 -0.14778
-0.19149 -0.04000 -0.06711
-0.19275 -0.05149 -0.04221
-0.19271 -0.05118 -0.07689
-0.19282 -0.05220 -0.11380
-0.19384 -0.06144 -0.08390
-0.31566 -0.11596 0.18591
0.08415 0.07178 -0.04666
-0.07513 -0.00372 0.15292
-0.08139 -0.01762 0.15007
0.27414 -0.03663 -0.15444
-0.41734 -0.11137 -0.09878
0.24428 0.07003 0.08469
0.32570 0.05991 0.08956
-0.13443 0.11310 0.08447
0.24906 -0.03808 -0.16929
0.12527 0.01579 -0.18414
-0.05431 0.07129 -0.15662
-0.04320 0.06942 -0.15822
0.02763 0.07074 -0.15709
-0.06503 0.07255 -0.15554
0.10643 0.03184 -0.09175
-0.02466 -0.03363 0.13842
-0.00823 -0.03621 0.13825
-0.01432 -0.03835 0.09661
-0.05267 -0.04342 0.14053
-0.01586 -0.03855 0.11940
-0.03120 -0.04058 0.11187
-0.01341 -0.03823 0.08495
-0.19243 -0.09216 0.05548
-0.19243 -0.09314 0.07292
0.13808 0.04415 -0.17797
0.07157 0.06709 -0.05205
0.07360 0.05756 -0.03474
-0.29415 -0.02728 -0.12388
0.19303 -0.04590 -0.12553
-0.36897 -0.02276 0.18039
-0.03139 -0.02348 -0.14553
0.16230 -0.05725 -0.11548
0.11651 0.12064 0.07383
0.17601 0.08499 0.07543
0.15106 0.10074 0.07034
-0.34466 -0.07378 0.13736
-0.20973 -0.08632 -0.16864
0.21019 -0.11936 -0.18704
-0.36779 -0.03905 0.17983
-0.30378 -0.12616 -0.17349
-0.42003 -0.02124 -0.08272
0.16504 -0.02726 0.07668
0.16482 -0.02566 0.09378
0.19814 -0.02861 -0.15851
-0.27229 -0.02175 -0.14020
-0.25437 -0.11675 0.15844
0.35237 -0.05821 -0.16908
0.21324 -0.13243 -0.12124
0.26749 -0.11638 -0.15670
0.26440 -0.13633 -0.14609
0.18958 -0.04004 -0.13913
0.24803 -0.01975 0.15296
-0.02823 -0.04019 0.15030
-0.22673 -0.01561 0.16835
-0.22752 -0.01519 0.15977
-0.21012 -0.07006 0.14072
-0.31359 -0.11694 -0.14249
-0.14440 0.09500 0.08132
-0.09780 -0.04675 -0.14785
-0.42808 -0.05878 0.06329
-0.11981 0.07687 0.15309
-0.43224 -0.01925 -0.03678
0.27993 -0.04869 0.16360
0.07668 0.10287 -0.17218
0.04812 -0.06151 -0.04090
0.01571 -0.06151 -0.12254
0.02902 -0.06151 -0.07408
0.12654 -0.06151 -0.06268
0.06040 -0.06151 -0.08558
0.10453 -0.06151 -0.07230
-0.01066 -0.06151 -0.11211
0.05343 -0.06151 -0.04734
0.02491 -0.06151 -0.06573
0.09330 -0.06151 -0.08084
0.03831 -0.06151 -0.09655
0.02369 -0.06151 -0.05003
0.02628 -0.06151 -0.10344
0.01263 -0.06151 -0.09090
0.07591 -0.06151 -0.07989
0.03403 -0.06151 -0.10630
0.10272 -0.06151 -0.06240
0.01923 -0.06151 -0.04240
-0.01171 -0.06151 -0.14090
0.03961 -0.06151 -0.05606
0.00749 -0.06151 -0.04327
0.05679 -0.06151 -0.07612
0.26336 -0.02351 0.16409
0.07525 -0.06151 -0.09444
0.31136 -0.09062 0.13124
0.30136 -0.03609 -0.12033
-0.22838 -0.07136 0.16940
-0.11498 0.02835 0.14283
-0.12007 0.05240 0.14251
-0.19303 -0.05566 0.03888
-0.19395 -0.06273 0.06578
-0.19254 -0.05195 0.09148
-0.19351 -0.05934 0.08628
-0.19214 -0.04888 0.04202
-0.07423 0.02604 -0.18255
-0.16815 0.02202 -0.18337
-0.11222 0.02332 -0.18309
-0.30449 -0.07068 0.15670
0.04104 -0.06151 -0.14173
0.06513 -0.06151 -0.13448
0.09454 -0.06151 -0.14444
0.16827 -0.06151 -0.10786
0.05472 -0.06151 -0.14558
0.09108 -0.06151 -0.09917
0.16605 -0.06151 -0.06678
0.13992 -0.06151 -0.06592
0.06048 -0.06151 -0.12949
0.12163 -0.06151 -0.15194
0.01982 -0.06151 -0.14931
0.05324 -0.06151 -0.12206
0.13048 -0.06151 -0.06736
0.15447 -0.06151 -0.05558
0.16433 -0.06151 -0.05456
0.15796 -0.06151 -0.07651
0.11332 -0.06151 -0.14551
0.02828 -0.06151 -0.12775
0.08127 -0.06151 -0.13595
0.05397 -0.06151 -0.10997
0.12934 -0.06151 -0.10448
0.04375 -0.06151 -0.12229
0.07282 -0.06151 -0.13015
0.09378 -0.06151 -0.11287
0.08110 -0.06151 -0.11144
0.21017 -0.01814 -0.16439
-0.07766 -0.04434 0.04035
0.21816 -0.02004 0.18353
-0.40130 -0.02520 -0.00402
0.39373 0.03596 0.06034
-0.13735 -0.06016 -0.14748
-0.12256 -0.06055 -0.14748
-0.13757 -0.05447 -0.14748
-0.13134 -0.05520 -0.14748
-0.08461 -0.03432 0.04820
0.23714 -0.14145 -0.18788
-0.30138 -0.06501 -0.15554
0.03673 0.02970 -0.18182
-0.05157 0.02872 -0.18203
0.09500 0.02609 -0.18249
0.06333 0.02987 -0.18178
-0.41698 -0.03662 0.12215
0.29933 -0.02412 -0.18097
-0.26023 -0.02010 -0.15174
-0.13997 0.05335 -0.05151
0.28604 0.06286 0.12454
0.26826 0.06490 0.12563
-0.21500 -0.05413 -0.16188
-0.00784 -0.04194 -0.11198
-0.24618 -0.06904 -0.15975
-0.27670 -0.01031 0.12502
-0.26740 -0.00763 -0.18006
0.16632 -0.03645 -0.13189
0.16612 -0.03501 -0.08569
-0.36117 0.01219 -0.18222
-0.31607 -0.02007 0.16952
0.17828 -0.07486 -0.15969
-0.22053 -0.10988 -0.15290
0.40562 0.01963 0.05090
-0.14621 0.15323 0.12256
-0.15505 0.15079 0.12354
-0.25235 -0.02239 -0.18704
0.22045 -0.12064 0.16144
-0.12142 -0.10034 -0.03680
-0.11058 -0.09971 -0.03680
-0.05883 -0.09757 -0.03680
-0.07056 -0.10012 -0.03680
-0.37034 -0.05848 -0.17717
-0.26467 -0.01823 -0.12068
-0.01798 -0.02276 0.14628
0.40568 -0.02887 -0.12453
-0.41887 -0.02046 0.02126
0.32164 -0.04600 -0.17086
0.08415 0.07248 -0.02506
-0.12605 0.07956 0.07860
-0.26955 -0.13702 -0.15171
-0.26504 -0.14922 -0.12549
0.28069 -0.02789 0.16788
-0.33373 -0.04235 -0.17358
0.21453 -0.07810 -0.15146
0.39251 0.03482 -0.07484
-0.10753 -0.00606 0.14311
-0.10795 0.04879 0.14689
-0.27595 -0.15415 -0.13675
0.31206 -0.09621 0.17718
-0.16701 -0.05885 0.07042
-0.15920 -0.05885 0.14198
-0.16181 -0.05885 0.12532
-0.17152 -0.05885 0.08326
-0.17451 -0.05885 0.09156
-0.31481 -0.11447 -0.16022
-0.19879 -0.04997 0.17699
0.34459 -0.08109 0.17222
-0.28603 -0.11018 -0.15439
-0.38551 0.04760 0.11988
-0.38039 0.04760 0.11456
0.29027 -0.03129 0.15382
-0.32795 -0.07297 -0.18591
-0.11156 -0.00801 -0.11859
0.25320 -0.07435 0.16512
-0.19520 -0.05952 0.17241
-0.19442 -0.07289 0.16958
0.20227 0.07434 0.09282
0.01806 0.04798 -0.17660
-0.07184 0.05005 -0.17483
0.19379 0.01859 -0.18377
0.24849 0.01536 -0.18425
-0.26037 -0.11883 0.15844
-0.21255 -0.09079 0.13328
0.20253 0.07417 0.00260
0.42160 0.00904 0.08833
-0.36377 0.02716 -0.16774
-0.42079 0.01935 -0.02514
-0.12700 -0.06151 -0.13242
-0.09115 -0.06151 -0.11607
-0.07544 -0.06151 -0.13680
-0.12144 -0.06151 -0.10735
-0.07442 -0.06151 -0.11695
-0.06269 -0.06151 -0.11034
-0.11271 -0.06151 -0.09254
-0.09681 -0.06151 -0.13996
-0.13128 -0.06151 -0.11080
-0.11309 -0.06151 -0.13419
-0.04878 -0.06151 -0.14114
-0.09738 -0.06151 -0.13391
-0.13497 -0.06151 -0.14056
-0.08664 -0.06151 -0.12629
0.34860 0.05782 0.00174
-0.28428 -0.06146 -0.16045
0.21996 0.07000 0.13303
0.24624 0.06712 0.13059
-0.42106 -0.03905 0.10397
0.07224 0.06197 0.00028
0.39496 -0.06067 0.13168
0.03893 -0.00577 0.01678
0.03555 -0.01819 0.02551
0.09803 -0.02376 0.17692
0.05797 -0.02665 0.17692
0.01035 -0.04634 0.17692
-0.02580 -0.03162 0.17692
0.00297 -0.05095 0.17692
0.01388 -0.00627 0.17692
-0.02414 -0.04100 0.17692
0.09304 0.00547 0.17692
-0.03971 -0.02762 0.17692
-0.00266 -0.05429 0.17692
-0.01325 -0.04574 0.17692
0.07981 -0.01288 0.17692
-0.00450 -0.02046 0.17692
0.06335 -0.05005 0.17692
0.04854 -0.01151 0.17692
0.06072 -0.03147 0.17692
0.08908 -0.02331 0.17692
0.07211 0.02492 0.17692
0.05955 -0.00456 0.17692
0.07074 -0.04821 0.17692
-0.12417 -0.05453 0.17692
-0.02649 -0.04956 0.17692
-0.06943 -0.02596 0.17692
0.09055 -0.00476 0.17692
-0.06521 -0.03984 0.17692
0.07794 -0.03799 0.17692
-0.05453 -0.04802 0.17692
0.02226 -0.00286 0.17692
0.03700 -0.04918 0.17692
0.07202 0.01351 0.17692
0.00334 -0.05707 0.17692
0.07195 -0.03949 0.17692
0.38224 -0.08037 0.14458
-0.26744 -0.11936 -0.15334
-0.01254 -0.02483 0.14038
-0.15898 -0.08436 0.14246
-0.15898 -0.06846 0.12888
-0.15898 -0.08708 0.11361
-0.15898 -0.08435 0.14984
0.22904 0.06888 0.13370
0.26404 0.06459 0.13563
-0.41928 -0.03766 0.02065
0.33165 -0.09563 -0.12176
0.33165 -0.08185 -0.12107
0.13075 0.01262 0.08175
0.12508 0.01527 0.04120
-0.12126 -0.02379 -0.04793
-0.11756 0.03798 -0.04261
0.16391 -0.05352 0.07329
-0.38632 -0.04196 -0.16880
0.26828 0.06123 0.15648
0.22545 0.06704 0.15439
0.27503 0.05545 0.16800
0.19677 0.06951 0.15627
0.35174 0.04760 -0.13081
0.34476 0.04760 -0.13755
-0.17580 -0.08965 -0.13852
-0.16348 -0.08965 -0.10477
-0.16826 -0.08965 -0.08681
-0.16389 -0.08965 -0.15209
0.19900 -0.05632 0.17650
-0.28551 -0.11473 0.15146
-0.32162 0.09343 0.14380
-0.30228 -0.14748 0.16809
0.23270 -0.02349 0.15944
0.25064 0.06979 0.06551
0.32736 0.06031 0.06796
-0.21125 -0.06410 -0.15933
-0.20785 -0.11268 -0.12549
0.20933 -0.11539 -0.16020
-0.17855 0.12285 0.13479
0.41040 -0.06149 0.08560
0.28695 0.06103 -0.14519
0.30435 0.05883 -0.14687
0.25964 0.06697 0.10989
0.31984 0.05937 0.11597
0.05107 0.05010 0.08893
0.41956 -0.06943 0.04040
-0.22371 -0.04433 0.16289
-0.00784 0.02712 0.00040
-0.20008 0.07507 0.15464
-0.17959 0.07109 0.15686
-0.20725 0.06311 0.16530
-0.20633 0.07139 0.15815
-0.34843 0.11657 0.08603
-0.37588 0.09780 0.08490
0.36770 0.04854 -0.10440
0.26316 -0.00432 0.16434
-0.35858 -0.11736 0.18012
-0.16090 -0.04836 -0.02501
-0.16202 -0.04224 -0.03264
-0.15939 -0.05657 -0.02944
0.08053 0.03204 -0.02564
-0.21517 -0.05377 0.14452
0.22211 -0.07112 0.16600
0.21310 0.01797 0.18387
0.12879 0.09034 0.09690
0.26972 -0.09805 0.17052
-0.32721 -0.02821 -0.14403
0.42164 -0.10432 -0.05911
-0.21586 -0.02370 -0.17989
-0.22168 -0.01933 -0.17561
-0.12338 0.01818 -0.12736
-0.11942 0.00999 -0.12315
-0.11940 0.00995 -0.10950
0.40742 0.01939 0.07192
-0.20767 0.13392 0.13037
-0.25146 0.11290 0.13875
0.22591 -0.12987 -0.12388
0.15200 -0.00258 0.12878
0.15220 -0.00284 0.09567
-0.29017 0.14587 0.11525
-0.29551 0.14318 0.11308
-0.24198 0.02172 0.18332
-0.28681 0.02530 0.18263
0.24497 -0.07565 0.16949
0.17721 -0.10005 -0.15564
0.17825 -0.08367 -0.12899
0.25063 -0.00359 0.16084
0.15141 0.08424 0.12331
0.10733 0.10951 0.12509
-0.36118 -0.04076 -0.18118
0.30141 -0.11289 0.15962
0.33851 -0.04367 -0.17752
-0.24846 -0.02579 -0.17122
0.20314 -0.05319 -0.14088
0.36198 -0.04156 -0.16552
-0.36732 -0.11564 -0.17808
-0.41725 0.02446 -0.06292
0.08360 0.06997 -0.09458
0.28551 -0.09796 0.15844
-0.43098 -0.03772 -0.01581
0.16605 -0.04179 0.03804
0.16654 -0.03823 0.13535
0.10973 0.01025 0.18477
0.03026 0.00679 0.18509
0.03558 0.00980 0.18484
-0.42108 -0.03476 0.00691
0.41986 -0.06962 -0.00409
-0.13553 -0.06862 -0.18070
0.01550 -0.06264 -0.18070
-0.13358 -0.09981 -0.18070
-0.00086 -0.06393 -0.18070
0.01675 -0.07984 -0.18070
-0.15793 -0.10880 -0.18070
-0.16574 -0.08889 -0.18070
-0.18206 -0.10442 -0.18070
-0.01898 -0.07968 -0.18070
0.12548 -0.06301 -0.18070
-0.08285 -0.09690 -0.18070
0.09738 -0.06175 -0.18070
-0.13064 -0.10481 -0.18070
-0.01314 -0.06179 -0.18070
0.03419 -0.07224 -0.18070
0.05635 -0.07951 -0.18070
-0.11363 -0.06936 -0.18070
-0.17815 -0.06658 -0.18070
-0.10613 -0.07930 -0.18070
-0.12143 -0.06267 -0.18070
0.04896 -0.07495 -0.18070
0.05775 -0.06214 -0.18070
0.07016 -0.06572 -0.18070
-0.03031 -0.08765 -0.18070
-0.08213 -0.05934 -0.18070
-0.00546 0.02343 0.01243
0.21341 0.07340 0.09378
0.22478 0.07203 0.09347
0.23779 0.07056 0.09096
0.10556 0.08967 0.12314
0.06330 0.05887 -0.04041
0.10277 0.03118 -0.06406
-0.23301 -0.03469 -0.15869
-0.37820 0.01353 -0.17269
-0.24408 -0.06026 0.15844
0.33054 -0.07043 -0.13974
-0.22206 -0.08652 -0.14916
0.05547 0.06157 0.11873
-0.04020 -0.07440 0.12900
-0.06950 -0.07440 0.09810
-0.11075 -0.07440 0.08436
-0.05866 -0.07440 0.09733
-0.11475 -0.07440 0.12214
-0.11789 -0.07440 0.07460
-0.10795 -0.07440 0.06819
-0.05199 -0.07440 0.10405
-0.09082 -0.07440 0.10778
-0.12145 -0.07440 0.09249
-0.07573 -0.07440 0.08701
-0.01032 -0.07440 0.14713
-0.04903 -0.07440 0.13025
-0.04487 -0.07440 0.12630
-0.08577 -0.07440 0.11102
-0.12345 -0.07440 0.07040
0.24327 -0.13163 0.16053
0.36383 -0.10019 -0.15922
-0.35033 0.09827 0.12300
-0.24723 -0.02873 0.16222
-0.41787 -0.11841 0.09506
0.41760 -0.07640 -0.01951
0.41760 -0.07387 -0.01151
0.43250 -0.01593 -0.04939
0.21276 -0.01588 -0.15418
0.22635 -0.13244 -0.14148
0.30948 -0.08619 0.16431
0.25069 -0.05898 0.16591
-0.27130 -0.04142 -0.15453
0.20742 -0.11729 -0.14056
-0.11532 -0.05355 0.17856
-0.09278 -0.05639 0.17768
-0.01765 -0.05743 0.17736
-0.22350 -0.06482 -0.16997
0.07484 0.04334 -0.13620
0.41839 -0.00766 0.10265
-0.03905 -0.00704 -0.02120
-0.29124 -0.13315 0.15029
-0.35961 0.11010 -0.08180
-0.31575 0.13808 -0.09033
0.08472 0.03060 -0.10826
0.31474 -0.04278 -0.18237
0.19241 0.02630 -0.18246
0.22803 0.02649 -0.18244
-0.39127 0.06343 0.11464
0.19735 -0.01730 -0.18504
-0.13387 -0.05966 0.15419
0.04213 0.14642 0.12528
-0.17139 -0.07854 0.15419
-0.38933 -0.05280 0.16424
-0.42917 -0.05964 -0.02481
-0.42672 -0.05777 -0.07544
-0.12071 0.06388 0.11377
0.11767 0.01718 -0.03853
0.12054 0.01652 -0.05019
-0.27427 -0.08916 -0.16425
0.25955 -0.08892 -0.16558
0.24833 -0.07889 0.16517
-0.19215 0.04302 0.17832
-0.42551 -0.09481 -0.02538
-0.42510 -0.10005 -0.02812
-0.11205 -0.04354 0.06035
0.10817 0.07634 0.08078
-0.11993 0.06338 0.04812
-0.10569 -0.04465 0.05087
-0.41042 -0.08237 0.12498
0.18781 0.08026 0.05868
0.09475 0.13604 0.05440
0.13225 0.11363 0.05548
0.15609 -0.04775 0.18016
-0.30745 0.01759 -0.17030
-0.36257 0.01759 -0.17664
-0.42483 0.01759 0.05190
0.40273 -0.06383 -0.10451
-0.16725 0.06670 -0.16056
-0.30961 -0.07672 -0.15551
-0.34074 -0.05350 0.14338
0.10354 0.08540 0.14160
0.13632 0.09618 0.11674
0.11917 0.10795 0.11307
0.14944 0.08942 0.11433
0.19585 0.07601 0.05283
-0.31640 -0.13933 0.15302
-0.29304 -0.08206 0.15935
-0.18016 0.04322 0.04444
-0.17947 0.06141 -0.04466
-0.17960 0.05794 -0.02624
-0.18015 0.04360 -0.05674
-0.17981 0.05245 0.03087
-0.17968 0.05582 -0.10207
-0.18012 0.04448 0.05829
-0.17987 0.05098 -0.14531
-0.18012 0.04442 -0.14186
-0.17975 0.05407 -0.05918
-0.17924 0.06743 -0.14763
-0.17935 0.06445 -0.10261
-0.25790 -0.02040 0.14370
-0.36196 0.01437 0.18131
0.28928 -0.12550 -0.16325
0.14185 0.08079 0.13910
0.11154 0.10200 0.13361
0.27927 -0.13150 0.17691
-0.07284 -0.02021 0.03059
0.22411 -0.12801 0.16246
0.34636 0.02923 -0.15888
0.27948 0.06413 -0.11768
0.20814 0.07258 -0.11838
-0.08336 -0.04606 0.06063
-0.30714 -0.12437 0.12247
-0.19804 -0.05384 0.13991
0.08214 0.08155 0.18297
0.10297 0.11906 -0.10963
0.07663 0.13254 -0.11469
-0.32331 -0.13054 0.13529
0.23387 -0.13361 -0.16295
0.07132 0.09346 0.19290
0.21539 0.07383 -0.07611
0.26795 0.06741 -0.07590
0.23587 0.07127 -0.07826
-0.27746 -0.08308 0.16881
-0.09244 -0.03902 -0.04016
0.31567 0.03491 -0.16664
0.32782 0.01973 -0.17439
-0.02896 -0.00663 0.02457
-0.27108 -0.00746 0.12864
0.08327 0.06936 -0.12613
0.42385 0.01492 -0.00646
-0.28713 -0.08749 -0.16425
-0.26355 -0.00479 -0.13684
0.40545 -0.08850 -0.11300
0.13245 0.01182 -0.10361
0.13059 0.01269 -0.06089
0.13802 0.00920 -0.14549
0.37478 -0.11306 0.14797
0.30071 -0.05628 0.16378
0.28359 -0.12242 -0.16424
0.25685 0.06395 0.15076
-0.35468 0.07987 -0.14078
-0.30109 -0.10016 0.15146
0.25895 0.01747 -0.18397
0.24992 0.02083 -0.18351
-0.33981 -0.02420 -0.18452
-0.00060 -0.03483 0.10486
0.41873 -0.11139 -0.06477
-0.14807 -0.02033 0.18499
-0.10953 -0.01798 0.18516
-0.02772 -0.02706 0.14152
-0.02511 -0.02276 0.04926
0.33165 -0.09643 0.15942
-0.23026 -0.09993 0.15844
0.33374 0.02530 0.16967
0.05364 -0.02002 -0.18492
0.11055 -0.01474 -0.18532
0.06080 -0.02091 -0.18484
0.30450 -0.11250 0.16428
0.22815 -0.02529 0.17747
0.14006 0.03020 -0.18077
-0.25424 -0.13499 -0.17045
0.06994 0.05976 0.00533
-0.26902 -0.08401 0.16492
-0.09967 -0.00251 -0.14956
-0.09369 0.00928 -0.15227
0.27096 0.06747 -0.05387
0.21872 0.07399 -0.04134
-0.30384 0.15350 -0.03819
-0.35627 0.11686 0.05780
-0.36788 0.10898 0.05684
0.23757 -0.13702 -0.17262
0.32828 0.05262 0.14789
0.30157 -0.04605 0.15430
-0.39615 0.06657 0.09919
-0.19737 -0.05606 -0.13152
-0.19632 -0.05766 -0.14641
0.38190 0.00318 -0.15153
0.23922 -0.04526 0.15146
0.30304 -0.11240 0.12247
0.04340 0.04271 -0.17841
0.08965 0.04390 -0.17805
-0.34629 0.05955 0.16886
-0.29378 0.08467 0.15100
0.25597 -0.13702 0.14371
-0.05464 -0.08437 -0.03680
-0.01264 -0.08257 -0.03680
-0.12672 -0.06714 -0.03680
0.00598 -0.08156 -0.03680
-0.06498 -0.07986 -0.03680
-0.08369 -0.08322 -0.03680
-0.11258 -0.07205 -0.03680
0.04803 -0.08412 -0.03680
0.09343 -0.08786 -0.03680
0.40742 0.01991 0.06660
0.41760 -0.07334 0.02539
0.29552 -0.02210 -0.12652
-0.34326 -0.06669 0.17114
-0.42501 -0.03356 0.09764
-0.12169 0.06910 0.15850
-0.25885 -0.15493 0.15043
-0.42501 -0.10125 0.03403
-0.42725 -0.07265 0.02130
0.19661 -0.07523 0.14223
0.39788 -0.05077 -0.12184
0.20518 -0.04484 -0.15149
-0.12936 -0.04419 -0.07910
-0.19551 -0.06576 -0.12474
0.05560 0.05929 0.09703
-0.18182 0.01817 -0.18389
0.42588 -0.00571 0.08354
0.38258 0.01177 -0.14592
-0.36723 -0.12123 0.17760
0.29521 -0.03837 -0.15674
0.25747 -0.11913 0.15593
0.31483 -0.03180 0.12776
0.29142 -0.00424 0.18125
0.21934 -0.01617 0.12915
-0.40682 0.06375 0.06201
-0.22908 -0.06018 -0.16155
0.23215 -0.02632 -0.16919
0.22462 -0.12345 0.16913
-0.11105 0.04560 0.17753
-0.02676 0.04036 0.17914
-0.08757 0.04423 0.17795
0.16607 -0.03468 0.00871
0.16655 -0.03808 0.03339
-0.19719 -0.08733 0.17720
0.22076 -0.01151 -0.16649
-0.16733 0.12320 -0.13454
-0.36547 -0.09322 0.17863
0.30061 -0.07398 -0.16594
0.42124 -0.06923 0.06389
-0.31876 0.11284 0.13344
-0.32956 0.09710 0.13926
-0.20735 -0.12294 0.15961
0.40020 -0.01932 -0.13233
-0.29188 0.08783 -0.14889
-0.32924 0.06648 -0.16383
0.26030 -0.01596 0.18807
-0.05966 -0.04425 0.15217
-0.03543 -0.03861 0.15217
-0.42317 0.01759 -0.00482
-0.38656 0.06959 0.11524
0.17253 -0.01950 0.18493
-0.12670 0.00504 -0.18530
-0.14274 0.00716 -0.18514
-0.13463 0.00379 -0.18541
0.40708 -0.03455 0.12184
-0.30010 0.14894 0.09052
-0.32386 0.13301 0.08830
0.33243 -0.09370 0.17652
0.07815 0.11983 0.13323
-0.24820 -0.06978 0.16425
0.39612 -0.09860 0.12646
-0.40399 0.05552 0.09153
-0.17061 0.12749 -0.13282
0.30433 -0.01986 -0.18494
0.24763 -0.11739 -0.15844
0.40627 0.02350 -0.06239
-0.37045 -0.01837 -0.17999
0.41926 -0.11570 -0.03044
0.30152 -0.11271 -0.14270
0.31199 0.05853 -0.14048
-0.29079 -0.11143 0.15334
-0.22894 -0.14363 -0.15049
-0.09599 -0.00147 -0.03931
0.22365 -0.02218 -0.18783
-0.40361 -0.09263 -0.13800
-0.34688 -0.08991 -0.12236
0.13530 0.03921 0.17947
0.15287 -0.00369 -0.05873
0.15793 -0.01012 -0.11947
-0.24539 -0.02127 0.18828
-0.16045 -0.05082 0.16564
-0.16671 -0.01670 0.16516
-0.16532 -0.02424 0.15703
0.11260 0.01834 0.03296
0.30908 -0.02918 -0.13517
0.08556 0.13271 -0.09995
0.07305 0.14099 -0.09746
0.25255 -0.15509 0.16132
-0.20996 -0.03224 -0.13961
0.31637 -0.05806 0.18767
-0.33900 -0.04622 -0.15617
0.39114 -0.11200 -0.12964
-0.00252 -0.00254 0.02825
-0.41795 0.03026 -0.02534
0.26823 -0.05349 -0.15844
-0.19622 -0.05989 -0.16559
0.36512 0.05290 0.02028
0.03123 -0.09669 0.03680
-0.12240 -0.09920 0.03680
-0.03476 -0.09600 0.03680
0.03656 -0.09631 0.03680
0.27863 -0.09946 -0.15146
-0.34710 0.06633 0.15966
0.32557 -0.05613 -0.13555
0.18099 0.07933 0.08807
0.16428 0.08836 0.09159
-0.24984 -0.13633 -0.15482
0.34694 -0.03846 -0.17424
0.39829 -0.05117 0.13022
0.09183 0.07295 0.06635
-0.38653 -0.09309 0.16335
-0.42795 -0.05510 -0.06986
0.19854 -0.09376 -0.15669
0.42291 -0.01925 -0.00292
-0.43082 -0.00750 0.06829
0.24430 -0.02323 0.16022
0.32058 0.06067 -0.08577
0.27606 0.06600 -0.08879
-0.27414 -0.07411 0.16878
0.41446 -0.03775 0.07200
0.25711 -0.05559 0.15763
0.39744 -0.06266 0.11451
-0.41827 -0.01529 0.11976
-0.30743 -0.12601 -0.16173
-0.32617 -0.09110 -0.13912
-0.15901 -0.02441 0.18462
-0.05101 -0.03113 0.18365
-0.03365 -0.02940 0.18388
0.29507 -0.03571 -0.18674
0.05700 0.08461 0.12513
0.39807 0.03107 0.06541
-0.30670 -0.06374 -0.15844
0.22751 0.01096 -0.18475
0.22570 -0.11562 -0.16815
0.26225 -0.15234 -0.17629
-0.36356 0.11277 0.04520
-0.34075 0.12847 0.04435
-0.12739 0.06859 -0.15705
-0.36145 -0.07339 -0.17693
0.18874 0.07510 -0.08660
0.15640 -0.00818 0.01234
-0.31532 -0.04457 -0.17420
0.34392 0.00880 -0.17488
-0.24002 -0.00849 -0.16912
0.24024 -0.14975 -0.17956
0.27093 -0.15319 -0.16515
-0.21468 -0.13158 0.16758
-0.39550 0.08430 0.07792
0.08702 0.08649 0.18443
0.16243 -0.05695 -0.01713
0.16484 -0.05046 0.03589
0.28635 -0.07097 -0.15147
-0.07544 0.04940 0.17539
-0.13628 0.04936 0.17541
-0.22989 -0.12460 -0.16043
-0.17850 0.06487 0.15813
0.25844 -0.13858 -0.12247
0.16227 -0.05731 0.10521
-0.42058 -0.10737 0.08524
-0.30900 -0.03537 0.18591
0.25394 -0.03880 0.17044
0.40600 -0.04333 0.09821
-0.21984 -0.04953 0.13639
-0.23772 -0.09705 -0.15844
-0.37357 0.02658 0.16298
0.05361 0.12964 0.13199
-0.15116 0.10012 -0.06809
-0.28408 -0.13759 -0.14605
-0.05953 -0.06941 -0.02855
0.08147 -0.06941 -0.01467
-0.04175 -0.06941 -0.03363
-0.01001 -0.06941 -0.02028
0.03586 -0.06941 -0.00605
-0.06105 -0.06941 -0.01690
-0.02952 -0.06941 -0.01264
0.09116 -0.06941 0.01084
0.08300 -0.06941 0.01649
-0.01095 -0.06941 -0.03093
0.04746 -0.06941 -0.03153
-0.02509 -0.06941 -0.02204
0.02472 -0.06941 0.00189
-0.00656 -0.06941 -0.00089
0.02769 -0.06941 -0.00456
-0.07882 -0.06941 -0.02752
-0.00251 -0.06941 -0.01647
0.02028 -0.06941 -0.02885
0.02799 -0.06941 -0.02074
-0.09325 -0.06941 -0.03235
-0.02679 -0.06941 -0.00297
-0.13598 -0.06941 -0.03299
-0.28198 0.15529 0.00087
-0.41152 -0.06252 -0.12691
0.23435 -0.13620 0.15666
0.09183 0.08962 0.10552
0.23384 -0.08774 0.16287
-0.34446 -0.06039 -0.15981
-0.16972 0.13903 0.12833
0.27401 -0.07830 -0.16956
-0.23892 -0.07680 0.15844
-0.33264 -0.05177 0.18407
-0.39335 0.07888 -0.08836
0.23723 0.06986 0.10651
0.22748 0.07143 0.09942
-0.30202 0.14456 -0.09939
-0.32340 0.13023 -0.09768
-0.38054 -0.01736 -0.17449
-0.28644 -0.02163 0.13185
0.23243 -0.11788 0.15146
0.22348 -0.09589 0.15493
-0.06134 -0.01936 0.01882
-0.13434 0.03095 -0.14146
-0.13327 0.06060 -0.14435
-0.23261 -0.07687 -0.15396
0.19394 0.06427 0.16267
0.13974 0.07212 0.15595
-0.41981 0.02300 -0.05241
0.39530 0.02560 0.09630
-0.13998 -0.05027 -0.12784
-0.10689 -0.05027 -0.13873
-0.11958 -0.05027 -0.10985
-0.13954 -0.05027 -0.08089
-0.17850 0.06430 -0.15642
-0.32578 0.13869 0.04555
-0.36051 0.11457 0.05215
-0.10486 -0.04979 -0.14560
-0.09079 0.02785 0.14047
0.10857 0.02270 -0.06928
-0.25056 0.01019 -0.18477
-0.37608 -0.09976 0.17317
-0.05452 -0.00151 -0.18554
0.02525 -0.00492 -0.18559
-0.04924 -0.00233 -0.18556
0.09479 0.08535 0.11451
-0.32857 -0.06936 0.17039
-0.13242 0.06434 -0.14058
0.07419 0.04754 0.05555
0.07426 0.04710 0.04977
-0.11517 -0.02040 0.02804
-0.12936 -0.02040 0.01597
-0.13242 -0.02040 0.00158
-0.16692 -0.02040 0.01063
-0.14960 -0.02040 0.00005
-0.16303 -0.02040 0.02795
-0.15182 -0.02040 0.03284
-0.42299 -0.02320 -0.00725
0.20735 -0.05114 -0.16551
-0.32368 -0.05480 0.12134
-0.27879 -0.01128 -0.18438
0.06152 0.05692 -0.05920
0.34057 0.05878 -0.06170
0.32511 0.06075 -0.05742
0.23303 -0.00860 0.17423
0.22984 -0.06361 0.15844
0.21303 0.03466 -0.18063
0.18005 0.03893 -0.17960
0.25261 -0.14800 0.18464
0.25617 -0.02785 0.16933
0.09534 0.04532 -0.10353
0.23205 -0.11338 0.16557
0.32812 0.00034 -0.18196
-0.13079 0.08547 0.07313
0.27443 -0.04816 -0.15670
-0.08633 -0.04413 0.14713
-0.22079 -0.02734 0.18158
-0.02508 0.06498 0.16203
0.04438 0.07328 0.15492
-0.03904 0.07410 0.15421
-0.05731 0.06966 0.15802
-0.01804 0.06953 0.15813
0.27692 -0.06431 0.16542
-0.25353 -0.09954 -0.15146
0.12468 0.03031 0.18168
-0.43200 -0.03635 -0.04319
-0.18095 0.07425 -0.10611
0.39296 0.03787 -0.04315
0.34333 0.02689 0.12112
0.33801 0.03533 0.11296
0.33385 0.04192 0.11114
-0.23141 -0.07269 0.16529
-0.19243 -0.08408 0.13394
-0.19243 -0.08693 0.10842
0.41373 -0.10481 0.09103
0.08483 0.10483 -0.14191
-0.08951 0.05815 -0.16789
-0.04864 0.06010 -0.16622
-0.32590 -0.06823 0.15314
-0.43144 -0.04208 -0.04638
-0.30116 0.13238 0.12655
0.22561 -0.05239 -0.15530
-0.31811 0.09066 0.05923
-0.32296 0.08979 0.13155
-0.31993 0.09033 -0.06957
-0.31883 0.09053 0.11158
-0.31578 0.09109 0.12834
-0.32068 0.09020 0.07549
-0.31577 0.09109 -0.05422
-0.27373 -0.02193 0.15195
-0.22870 -0.13454 -0.18541
-0.12362 -0.06387 0.05954
-0.12362 -0.06976 0.04547
-0.12362 -0.06517 0.04925
0.39753 -0.03634 0.13533
-0.42623 -0.08489 -0.04375
0.34402 -0.05255 -0.17413
0.24723 -0.09560 -0.16982
-0.18786 0.04472 -0.17782
0.09953 0.09048 0.12649
0.18889 -0.03846 -0.16746
-0.34610 0.10644 0.11446
-0.30987 0.13369 0.11165
-0.09940 -0.03380 -0.04187
-0.08848 -0.01053 -0.03692
-0.05771 -0.03957 0.10435
-0.21653 -0.10805 -0.14149
-0.19947 -0.10915 0.14808
-0.42679 -0.07696 0.04865
0.07593 0.05533 -0.13820
-0.15898 -0.07674 -0.03832
-0.15898 -0.06676 -0.04336
-0.15898 -0.08110 -0.09465
-0.15898 -0.08753 -0.10003
-0.19298 -0.08623 0.15667
-0.19373 -0.08388 0.12408
-0.21443 -0.09658 0.17176
0.22656 -0.11353 -0.15303
0.24816 -0.02361 -0.16776
-0.43026 -0.03905 0.04376
-0.26820 -0.00191 0.17615
-0.26628 -0.00231 0.16375
0.14472 -0.04102 -0.18179
-0.05245 -0.04110 -0.08581
-0.06915 -0.04331 -0.10493
-0.06299 -0.04250 -0.09107
-0.06667 -0.04298 -0.13553
-0.06490 -0.04275 -0.09865
-0.42958 -0.02188 0.07618
-0.17149 0.09924 -0.09167
-0.28367 -0.09900 0.17086
0.07015 0.05900 -0.05622
-0.15682 0.14571 0.12557
0.37217 0.00697 -0.15904
-0.00853 0.00605 0.18516
0.07251 0.00394 0.18530
-0.26729 -0.05589 0.16613
-0.15869 -0.10048 -0.00661
-0.09519 -0.10048 -0.02631
-0.16359 -0.10048 0.01394
-0.06474 -0.10048 -0.00158
-0.15174 -0.10048 0.00256
-0.14818 -0.10048 -0.01524
-0.12366 -0.10048 -0.03090
-0.03581 -0.10048 -0.02739
-0.10743 -0.10048 -0.00625
-0.10575 -0.10048 -0.01509
-0.05674 -0.10048 -0.01131
-0.10728 -0.10048 0.00618
0.00382 -0.10048 -0.03168
0.02308 -0.10048 -0.03410
-0.01349 -0.10048 -0.02197
0.01141 -0.10048 -0.02675
-0.09039 -0.10048 0.00991
-0.17572 -0.10048 -0.00622
-0.13772 -0.10048 -0.00053
-0.07575 -0.10048 -0.01209
-0.12469 -0.10048 0.00478
-0.13418 -0.10048 -0.02473
-0.14817 -0.10048 0.01135
-0.02159 -0.10048 -0.02940
-0.18086 -0.10048 -0.00471
0.24350 -0.02032 -0.13746
-0.28559 -0.11596 -0.15146
-0.41519 0.04024 -0.04510
0.29366 -0.12160 0.15332
0.38579 -0.03152 0.14794
-0.08996 -0.03819 -0.05033
-0.24265 -0.13317 0.14007
-0.25622 -0.11277 -0.16720
0.39874 0.00757 0.13285
-0.28168 -0.06625 -0.16515
0.25159 -0.00075 0.18544
-0.14650 0.07713 0.12373
-0.12910 -0.01774 0.05595
-0.13899 0.03617 0.06391
-0.14709 0.08032 0.05733
-0.14657 0.07751 0.10864
-0.14698 0.07973 0.11428
-0.14693 0.07943 0.09511
-0.12653 -0.03178 0.05917
-0.14444 0.06586 0.07057
-0.13719 0.02637 0.09248
-0.13546 0.01693 0.05503
-0.14821 0.08642 0.05203
-0.13340 0.00570 0.06122
-0.14064 0.04518 0.10575
-0.14854 0.08822 0.06800
0.07485 0.05507 -0.08242
0.06565 0.06569 0.08013
-0.08610 -0.02848 0.11238
-0.08892 -0.02140 0.06091
-0.17363 0.01759 0.16657
-0.34049 -0.09681 0.17617
-0.27255 -0.05204 -0.16600
0.33165 -0.07230 0.15646
0.21287 -0.06892 -0.16525
0.41196 -0.11744 -0.08635
-0.33287 0.13408 -0.00085
-0.36645 0.11106 -0.00668
-0.35119 0.12152 -0.00565
-0.37951 0.10210 -0.02935
-0.41435 -0.04069 -0.12745
-0.24543 0.01759 -0.00020
-0.22116 0.01759 0.01650
-0.27398 0.01759 -0.06894
-0.22455 0.01759 -0.07388
-0.26381 0.01759 -0.03282
-0.23921 0.01759 -0.07948
-0.26530 0.01759 -0.00857
-0.22563 0.01759 0.02918
-0.18739 0.01759 -0.01841
-0.25007 0.01759 -0.00596
-0.24509 0.01759 -0.04976
-0.33391 0.01759 -0.09294
-0.33953 0.01759 -0.06538
-0.20736 0.01759 -0.06867
-0.23689 0.01759 -0.05589
-0.20650 0.01759 -0.03990
-0.30082 0.01759 -0.05918
-0.27944 0.01759 -0.04055
-0.19897 0.01759 0.05766
-0.21301 0.01759 -0.08851
-0.24759 0.01759 0.03406
-0.20088 0.01759 -0.08395
-0.27529 0.01759 -0.05194
-0.28349 0.01759 -0.00699
-0.26304 0.01759 -0.06938
-0.19938 0.01759 -0.09287
-0.23288 0.01759 -0.09539
-0.21491 0.01759 0.01184
-0.21679 0.01759 0.03518
-0.26991 0.01759 -0.08999
-0.19995 0.01759 -0.02461
-0.28184 0.01759 -0.02350
-0.25653 0.01759 -0.06954
-0.22044 0.01759 -0.07906
-0.30739 0.01759 -0.05914
-0.20882 0.01759 -0.00107
-0.19940 0.01759 -0.01675
-0.24269 0.01759 0.00828
-0.32080 0.01759 -0.06713
-0.20755 0.01759 -0.01128
-0.26797 0.01759 -0.03866
-0.34657 0.01759 -0.07604
-0.23438 0.01759 0.04494
-0.26719 0.01759 -0.00050
-0.14963 0.11215 0.12292
-0.06649 -0.04160 -0.03882
-0.05278 -0.03818 -0.03882
-0.38315 0.09335 -0.08287
0.19370 -0.12509 -0.14998
0.39946 -0.06868 -0.12403
0.06977 -0.04333 -0.18126
0.22957 -0.12030 -0.16863
0.00948 -0.03672 0.10402
-0.23730 -0.07133 -0.16599
-0.07174 -0.00420 0.14626
0.31484 -0.12550 0.14786
0.39968 -0.09868 -0.12151
0.11634 -0.05877 0.16753
0.11634 -0.03613 0.17321
0.11634 -0.05677 0.16234
-0.22209 -0.06519 0.16464
0.09268 0.02276 0.07213
-0.21000 -0.09065 0.15600
-0.26243 -0.00396 0.14869
-0.40074 -0.00675 -0.15304
-0.42357 -0.03298 -0.04109
0.29993 -0.13974 -0.13774
0.26078 -0.04433 -0.15334
0.32552 -0.03826 -0.17733
0.31266 0.06234 0.05246
0.22049 0.07371 0.05176
-0.16876 0.13396 0.13036
-0.33024 -0.06480 0.12007
0.25915 -0.07572 -0.16892
0.11315 0.11960 -0.08832
0.06489 0.14689 -0.09378
0.08867 0.08951 0.17680
0.36904 0.04050 -0.12226
-0.32687 -0.04313 -0.18629
-0.06286 -0.05885 0.16185
0.10375 -0.05885 0.17284
-0.04584 -0.05885 0.15593
0.00279 -0.05885 0.16642
0.09734 -0.05885 0.17104
