0.0128449993208 -0.0257494989783 0.0195825006813
-0.0092575000599 -0.0180284995586 -0.0165900010616
0.0126279992983 -0.114680998027 0.0106784999371
0.00836149975657 -0.0261624995619 0.0219660010189
0.0623735003173 0.035283498466 -0.0505924969912
-0.0596259981394 0.0369844995439 0.0490454994142
0.0194739997387 -0.0896525010467 -0.0129954991862
-0.0265789981931 0.10284049809 -0.020583499223
-0.0364699997008 0.0823480039835 -0.0298480000347
-0.0381990000606 0.0805770009756 -0.0297745000571
-0.051341496408 0.0556639991701 -0.0399210005999
-0.00452899979427 0.0329104997218 -0.00373800005764
0.00588349997997 -0.119237996638 0.0369879975915
-0.000447999977041 0.130255997181 -0.00153649994172
-0.00775250000879 -0.0693209990859 -0.00878150016069
0.0136080002412 -0.0883925035596 -0.019001500681
0.0181369986385 -0.030379999429 -0.0149274999276
0.005057499744 -0.00393399968743 0.00293299974874
0.0265999995172 -0.12056799978 0.0320284999907
0.0317624993622 -0.120662495494 0.0269220005721
-0.0148644996807 -0.113998495042 -0.00420349976048
0.0113819995895 -0.0642390027642 -0.0026984999422
-0.0207304991782 0.0338344983757 0.073913000524
-0.0233204998076 -0.0900234952569 -0.000503999995999
0.016127999872 -0.115500003099 -0.00751100014895
0.0254694987088 0.0357525013387 0.0758309960365
-0.017059000209 -0.0176960006356 0.00759499985725
-0.0653029978275 0.0362844988704 -0.0462069995701
0.0116060003638 -0.0715750008821 -0.00186199997552
-0.0112069994211 0.0156099991873 -0.00334249972366
0.00871500000358 -0.014972999692 -0.0123409992084
-0.0493989996612 0.0366415008903 0.062905497849
0.0232925005257 -0.125541493297 -0.0367569997907
0.0116060003638 -0.119237996638 -0.0240240003914
-0.0121834995225 -0.12269949913 0.0405509993434
-0.0132440002635 -0.119938001037 0.0391055010259
9.44999919739e-05 0.0580474995077 0.000972999958321
-0.0174649991095 -0.101415999234 0.00257249991409
-0.077486500144 0.0369425006211 0.0164045002311
0.000517999986187 -0.101479001343 0.0174334999174
0.0188090000302 -0.123805493116 -0.0385279990733
0.0163659993559 -0.12066950649 -0.0384720005095
0.0112874992192 -0.0704270005226 0.00304149976
-0.0689184963703 0.0403374992311 0.0299494992942
-0.0479884967208 0.0704934969544 0.0263409987092
-0.0395114980638 0.0829114988446 0.0246084984392
-0.0618134960532 0.0426124967635 0.0392489992082
-0.0570604987442 0.0489545017481 0.039101999253
-0.0362179987133 0.0852599963546 0.0272054988891
-0.0583905018866 0.0484574995935 0.0374500006437
-0.0554469972849 0.0546244978905 0.0343979969621
-0.0608124993742 0.0535114966333 0.0265789981931
-0.0425390005112 0.0819279998541 0.0206604991108
-0.0596294999123 0.0486919991672 0.0349929966033
-0.0624784976244 0.0448139980435 0.035188999027
-0.0610154978931 0.0420559979975 0.0413664989173
-0.0561189986765 0.0509704984725 0.0380659997463
-0.0222494993359 0.114163003862 0.0131950005889
-0.0620374977589 0.0490909963846 0.0302960015833
-0.0391089990735 0.0821589976549 0.0262954998761
-0.0529934987426 0.0583065003157 0.0337784998119
-0.0286860000342 0.10242049396 0.0175630003214
-0.0633009970188 0.0467704981565 0.0311779994518
-0.0451220013201 0.0730800032616 0.0278880000114
-0.0183049999177 -0.119237996638 -0.0272124987096
-0.0732969939709 0.0353464968503 -0.0200829990208
-0.00451149977744 -0.119237996638 0.0324449986219
-0.00810949970037 -0.119237996638 0.0256339982152
0.00729400012642 0.0915810018778 0.0402745008469
0.00640149973333 0.0987874940038 0.0355844981968
0.00869399961084 0.0683269947767 0.0558145008981
-0.0441629961133 0.03721550107 0.0652434974909
0.00267399987206 0.00430499995127 0.00520450016484
-0.000133000008645 0.116609498858 0.000972999958321
-0.0423604995012 0.0647395029664 -0.0404145009816
-0.0270164981484 0.0893165022135 -0.0327880010009
-0.0578479990363 0.0364874973893 -0.0513379983604
-0.050680000335 0.0510055013001 -0.0449329987168
-0.0558774992824 0.0385244973004 -0.0514010004699
-0.0291269980371 0.0846230015159 -0.0350629985332
-0.0312935002148 0.0863765031099 -0.0312584973872
-0.0224699992687 0.0993369966745 -0.0279684998095
-0.0299005005509 0.0904574990273 -0.0288399998099
-0.0179619994015 0.1114680022 -0.0211364999413
-0.0484469980001 0.0474179983139 -0.0505225025117
-0.0321439988911 0.0887074992061 -0.0282275006175
-0.0159495007247 0.117974497378 -0.0170694999397
-0.0488250032067 0.0544214993715 -0.0435959994793
-0.0569869987667 0.0416814982891 -0.0473480001092
-0.0384929999709 0.0776859968901 -0.0321824997663
-0.0444850027561 0.0439459979534 -0.057728998363
-0.0024675000459 0.0353744998574 -0.00115149992052
-0.000773500010837 0.0353744998574 -0.00323050003499
-0.0165059994906 -0.0258545000106 0.0165585000068
0.015904000029 -0.0161560010165 0.00467949965969
-0.0207059998065 -0.0924244970083 0.010244499892
0.00551600009203 -0.0642390027642 0.0103144999593
0.014699999243 -0.121883995831 -0.0395359992981
0.0743574947119 0.0372329987586 0.0213185008615
0.0141715006903 -0.101853497326 0.0091350004077
0.0486604981124 0.0339500010014 -0.0634445026517
0.00784699991345 -0.0481774993241 -0.0146439988166
0.00667800009251 -0.0516914986074 -0.0134819997475
-0.016561999917 -0.115528002381 0.00681799976155
-0.0212204996496 -0.0864709988236 -0.00933449994773
0.0220184996724 -0.030992500484 -0.00817249994725
0.0761249959469 0.0360465012491 0.00505049992353
-0.0154245002195 -0.0196979995817 -0.0144970007241
0.0300929993391 0.0346219986677 0.070566996932
-0.0489684976637 0.0766500011086 -0.0129814995453
-0.057718500495 0.0611204989254 -0.0199779998511
-0.0536549985409 0.0693595036864 -0.0141084995121
-0.0432075001299 0.0847349986434 -0.0138389999047
-0.0415975004435 0.0880459994078 -0.0113854994997
-0.0574489980936 0.0634760037065 -0.0149800004438
-0.0500044971704 0.0729749947786 -0.0185009986162
-0.0325849987566 0.103334002197 -0.00598500017077
-0.0451254993677 0.0817250013351 -0.0143605004996
-0.036508500576 0.0980524942279 -0.00482299970463
-0.030047500506 0.107383497059 -0.00511000026017
-0.0564900003374 0.0630734935403 -0.0195894986391
-0.0509600006044 0.0724954977632 -0.0161699987948
-0.0632065013051 0.0575960017741 -0.00850499980152
-0.0470505021513 0.0805104970932 -0.0102864997461
-0.0408904999495 0.0913534983993 -0.00558249978349
-0.0462630018592 0.0828310027719 -0.00729400012642
-0.00753549998626 0.0177905000746 -0.00899850018322
-0.00368199986406 -0.11612650007 0.0183434989303
0.0188894998282 -0.0869365036488 -0.013474999927
-0.00109899998643 0.131354987621 0.00170449994039
0.0197714995593 -0.0829815044999 -0.0095830000937
0.00715399952605 0.110260501504 0.0275309979916
0.0215739998966 0.0536480024457 0.0624049976468
0.00931700039655 0.0997009947896 0.0341775007546
0.00981049984694 0.0506274998188 0.0676269978285
0.0133734997362 0.0845915004611 0.0434280000627
0.00971600040793 0.056164495647 0.0638609975576
0.0147594995797 0.0498854964972 0.0668080002069
0.0174474995583 0.0722225010395 0.0507990010083
0.00926099997014 0.0662899985909 0.0570534989238
0.0158864986151 0.0479185022414 0.0678509995341
0.0153789995238 0.0425845012069 0.0716345012188
0.0110915005207 0.0720719993114 0.0526084974408
0.0109899993986 0.0391089990735 0.0751904994249
0.0104054994881 0.109280496836 0.0273314993829
0.0164710003883 0.04404399544 0.0703465044498
0.0149204991758 0.0631819963455 0.0576659962535
0.018214000389 0.0654814988375 0.0552089996636
0.0122185004875 0.0954414978623 0.0363124981523
0.0242899991572 0.0441805012524 0.0681554973125
0.0126700000837 0.0375654995441 0.0757960006595
0.0147419990972 0.0778224989772 0.0476945005357
0.0138845006004 0.0903769955039 0.0393329970539
0.011150999926 0.0542569980025 0.0647815018892
0.0121975000948 0.104839004576 0.0298899989575
-0.00944299995899 -0.0106434999034 0.00122849992476
-0.0345379970968 -0.12009549886 -0.0227079987526
-0.037488501519 -0.12240550667 -0.0194739997387
-0.00955499988049 -0.0754005014896 0.0095830000937
-0.0108359996229 -0.0608159974217 0.00461299996823
0.00613550003618 -0.0145880002528 -0.0132544999942
-0.00183749990538 -0.0780114978552 -0.0180669985712
0.0198064986616 0.100712500513 0.0286965016276
0.0411389991641 0.0514289960265 0.0539944954216
0.00776650011539 0.125849500299 0.0164640005678
0.0143744992092 0.112521491945 0.0228199996054
-0.00491750007495 -0.0442574992776 0.0177134983242
0.00807800050825 -0.0792434960604 -0.0176155008376
0.0637594982982 0.0372924990952 0.0461614988744
-0.00552999973297 -4.90000020363e-05 -0.00195299996994
0.00354900001548 -0.0478169992566 -0.0164115000516
0.0050714998506 -0.0399210005999 -0.0197014994919
0.00634550023824 0.0196104999632 -0.00983850006014
-0.0235969983041 -0.119237996638 0.0306180007756
0.0233904998749 -0.119237996638 -0.0277619995177
0.000948499946389 -0.0110704991966 -0.00999599974602
0.0393224991858 0.035178501159 -0.0650755017996
-0.00562100019306 -0.0616804994643 -0.0102549996227
-0.0293160006404 0.0334459990263 -0.0731220021844
0.0173879992217 0.0672874972224 0.0541940033436
0.0227044988424 0.0418004989624 0.0702099949121
0.016526998952 0.0375759974122 0.0747564956546
0.00948499981314 0.113648504019 0.0245874989778
0.0108674997464 0.0855749994516 0.0434280000627
0.0139159997925 0.073608495295 0.0507990010083
0.0121625000611 0.0767095014453 0.049147002399
0.0267469994724 0.0479779988527 0.0649005025625
0.0169714987278 0.0544634982944 0.0630805045366
0.0204119998962 0.046931501478 0.067312002182
0.0130129996687 0.0880250036716 0.0411775000393
0.0113610001281 0.0878114923835 0.04176549986
0.016880499199 0.0795935019851 0.0459095016122
0.0208845008165 0.0665140002966 0.0537879988551
0.0241114981472 0.0488879978657 0.0649845004082
0.0154874995351 0.0829954966903 0.0439564995468
0.00923299975693 0.0621634982526 0.0598850026727
0.0148715004325 0.0535499975085 0.064270503819
0.0108639998361 0.103305995464 0.0312969982624
0.0240765009075 0.0588314980268 0.0581874996424
-0.0058449995704 0.00771049968898 0.000227500000619
-0.0621775016189 0.0339954979718 -0.0454159975052
-0.0140944998711 -0.0786415040493 -0.0123445000499
0.0145354988053 0.033939499408 0.0781584978104
0.00604799948633 -0.119237996638 -0.0275344997644
0.00669550010934 -0.119237996638 -0.0306774992496
-0.0648339986801 0.0373029969633 0.0430115014315
0.0373729988933 -0.12074649334 0.0183294992894
0.034929998219 -0.121138490736 0.0228829998523
-0.00756000028923 -0.119237996638 0.0308839995414
-0.0144095001742 -0.119237996638 0.0367639996111
-0.0115849999711 -0.0863379985094 -0.0199044998735
0.0233834981918 -0.028091000393 0.00200550002046
0.0683164969087 0.0429870001972 0.0267364997417
0.0609560012817 0.0607145018876 0.00893200002611
0.0412894971669 0.0892814993858 0.00937999971211
0.0715330019593 0.0417970009148 0.0177870001644
0.0672490000725 0.0471764989197 0.0200234986842
0.0450415015221 0.0830620005727 0.0112594999373
0.0701574981213 0.0455594994128 0.0133035006002
0.066605001688 0.0520449988544 0.00999249983579
0.0311674997211 0.104758501053 0.00764050008729
0.0395745001733 0.0905694961548 0.0124845001847
0.0320390015841 0.102574497461 0.00996449962258
0.0522549971938 0.0705040022731 0.0164184998721
0.0550584979355 0.0695484951138 0.00838600005955
0.0711444988847 0.0455069951713 0.00975449942052
0.0708224996924 0.0432530008256 0.0167089998722
0.0576799996197 0.0649319961667 0.0103984996676
0.0613794960082 0.0575434975326 0.0154524995014
0.067563995719 0.0449014976621 0.0246644988656
0.0330469980836 0.101723998785 0.00836850050837
0.0659574940801 0.0511034987867 0.0148189999163
0.0523425005376 0.0731359943748 0.00935549940914
-0.00707349972799 -0.109896495938 -0.00941499974579
0.00207549985498 0.0536199994385 -0.0658804997802
-0.0092294998467 0.0395534969866 -0.0751800015569
-0.00530599988997 0.0888475030661 -0.0425985008478
-0.0045219999738 0.0820925012231 -0.0470610000193
-0.00841400027275 0.0463224984705 -0.070707000792
-0.00484049972147 0.0411215014756 -0.0741439983249
-0.00450449995697 0.0926064997911 -0.0401135012507
-0.00408799992874 0.0974434912205 -0.0369179993868
0.0053270002827 0.0469034984708 -0.0703219994903
0.002015999984 0.0495529994369 -0.0685684978962
0.00158549996559 0.0998864918947 -0.0353009998798
-0.00147349992767 0.115500003099 -0.0249829981476
0.00356649979949 0.0395359992981 -0.0751904994249
0.000773500010837 0.0564829967916 -0.0639905035496
0.00540049979463 0.063055999577 -0.0596435032785
-0.00132999999914 0.0361129976809 -0.0774549990892
-0.0051974998787 0.0550480000675 -0.0649389997125
0.00242900010198 0.0621074996889 -0.0602734982967
-0.00241499999538 0.050634495914 -0.0678544938564
0.00200550002046 0.0733529999852 -0.0528394989669
-0.00514849973843 0.0578584969044 -0.0630805045366
-0.00207199994475 0.125982493162 -0.0180530007929
0.006212499924 0.0586844980717 -0.0625345036387
-0.00587999960408 0.0613059997559 -0.0608020015061
-0.00410899985582 0.0866389945149 -0.0440579988062
0.00202299980447 -0.041779499501 -0.0195020008832
0.00850499980152 -0.102588504553 0.0131879998371
0.00776300020516 -0.0781759992242 0.0165689997375
-0.0157639998943 -0.024604998529 -0.0173039995134
-0.0057469997555 -0.119237996638 -0.0352239981294
0.0039584999904 0.0152775002643 -0.0108150001615
0.0465850010514 -0.133199498057 0.00302399974316
0.0443134978414 -0.127602994442 -0.00330400001258
-0.0566369965672 0.0341879986227 -0.0557550005615
-0.00412299996242 -0.0325535014272 -0.0231034997851
-0.000461999996332 -0.0293229985982 -0.0233834981918
0.0206955000758 -0.0825510025024 -0.00645749969408
0.00662899995223 0.00933100003749 0.00215249997564
-0.010139499791 -0.0696045011282 -0.00581700028852
-0.0603889971972 0.0606549978256 0.0112140001729
-0.0441839993 0.0850849971175 0.00930299982429
-0.0514710023999 0.0718024969101 0.0160229988396
-0.0376180000603 0.0951894968748 0.00800449959934
-0.0589224994183 0.0577255003154 0.0241640005261
-0.0218749996275 0.118635997176 0.00688100000843
-0.057812999934 0.0598709993064 0.0228304993361
-0.0548695027828 0.0672559961677 0.0149520002306
-0.0391265004873 0.0915074944496 0.0117704989389
-0.0624154992402 0.05699750036 0.0129814995453
-0.0328929983079 0.101387999952 0.00980350002646
-0.0683550015092 0.0491820015013 0.0107869999483
-0.0641480013728 0.0557969994843 0.0095934998244
-0.0658629983664 0.0490559972823 0.020394500345
-0.0553769953549 0.0645854994655 0.0198695007712
-0.0546839982271 0.0668219998479 0.0167475007474
-0.0493885017931 0.0775320008397 0.00917350035161
-0.0386925004423 -0.119237996638 0.00684249959886
-0.0341949984431 -0.119237996638 -0.00765450019389
-0.0520204976201 0.0341879986227 0.0560384988785
0.0171464998275 -0.081224501133 0.0119700003415
-0.0137129994109 -0.0151480007917 -0.00679349945858
-0.0229249987751 -0.0858829990029 0.00124949996825
-0.0797159969807 0.0350735001266 0.0110074998811
-0.0324135012925 0.0372960008681 0.0716694965959
0.0203979983926 -0.0239924993366 -0.0114344991744
-0.0111615005881 0.0148679995909 -0.000356999982614
0.0184519998729 -0.0405965000391 0.00811649952084
0.00875349994749 -0.0978074967861 0.0189525000751
-0.00536199985072 -0.0688799992204 0.0104054994881
-0.0218784995377 -0.0210734996945 -0.00697899982333
0.0444150008261 0.0860964953899 0.00457099964842
0.0501864999533 0.0773674994707 0.00638749962673
0.027313997969 0.111971996725 0.00276850000955
0.0334355011582 0.102710999548 0.00295049999841
0.0634654983878 0.0572775006294 0.00811649952084
0.00565599976107 -0.0156065002084 -0.0149099994451
0.00510649988428 0.00844199955463 -0.00372749986127
0.0130094997585 -0.11395650357 -0.0082320002839
0.0147174997255 -0.0518524982035 -0.00281750014983
0.0787990018725 0.0352380014956 0.0145249990746
-0.0421505011618 -0.122972503304 -0.00663949968293
-0.0457834973931 -0.132394492626 -0.00785749964416
-0.00251999986358 0.0346115007997 0.00529550015926
-0.0110389990732 -0.0595874972641 -0.00397250009701
-0.0112839993089 0.0203419998288 -0.00306249991991
-0.0157814994454 -0.0422974973917 0.0112034995109
-0.0185115002096 -0.0355949997902 0.0125404996797
0.0195825006813 0.0784629955888 0.0458079986274
0.0290920007974 0.0501234978437 0.0619465000927
0.0232925005257 0.0896385014057 0.0351364985108
0.0255465004593 0.0565389990807 0.0590975023806
0.0164954997599 0.0913079977036 0.0377859994769
0.0208180006593 0.0769754946232 0.0462279990315
0.011364499107 0.111740998924 0.0251544993371
0.0236670002341 0.0613689981401 0.0564935021102
0.0338204987347 0.0522620007396 0.0575819984078
0.0349650010467 0.0629929974675 0.04873399809
0.0226590000093 0.071225002408 0.0495564974844
0.0309365000576 0.0542534999549 0.0577325001359
0.0307824984193 0.0520695000887 0.05948600173
0.0264039989561 0.0738429948688 0.0453950017691
0.0404739975929 0.0400890000165 0.0630349963903
0.0239889994264 0.0788690000772 0.0429554991424
0.0294280014932 0.0645015016198 0.0507779978216
0.0101009998471 0.118471503258 0.020748000592
-0.0145914992318 -0.115226998925 0.00933799985796
0.000542499998119 0.056525003165 -0.000811999954749
-0.0459129996598 0.0360010005534 0.0656109973788
-0.0021490000654 -0.118216000497 0.0218364987522
-0.0113225001842 0.0241744983941 0.00199849996716
-0.0381850004196 0.0337994992733 0.0666399970651
0.0560595020652 0.0335579998791 -0.0551494993269
-0.00264599989168 -0.104432992637 -0.0113959992304
0.0414819978178 -0.131095990539 0.0196139998734
-0.00756000028923 -0.113189995289 -0.0120609998703
-0.0126525005326 -0.022410498932 0.0196944996715
0.0280945003033 -0.119237996638 0.00916999951005
0.0332570001483 -0.119237996638 -0.00225750007667
0.0267364997417 -0.119237996638 0.0224385000765
0.0101254992187 0.0150395007804 0.00503999972716
-0.0209334995598 -0.130039006472 0.0402220003307
-0.02400300093 -0.121953994036 0.0346640013158
-0.00640500010923 -0.0707945004106 0.00980000011623
-0.0233520008624 -0.0330259986222 -0.00318500003777
-0.000497000000905 -0.0651209950447 0.0116899991408
0.0252630002797 0.0371384993196 -0.0730590000749
-0.0405895002186 -0.119237996638 0.00475650001317
-0.0295924991369 -0.119237996638 -0.021738499403
-0.0313879996538 -0.119237996638 -0.0131879998371
-0.00960750039667 0.0249164998531 0.00512049999088
-0.00360149983317 -0.103586003184 -0.0129674999043
-0.00171850004699 -0.0408239997923 -0.0199360009283
0.00205449992791 -0.0357525013387 -0.0222319997847
-0.0371174998581 0.0612360015512 -0.0488319993019
-0.0118964994326 0.119542494416 -0.0188929997385
-0.0175909996033 0.109395995736 -0.0233520008624
-0.00928200036287 0.129657492042 -0.0126839997247
-0.038503497839 -0.129401996732 -0.0233974996954
-0.0369984991848 -0.12862148881 -0.0253679994494
0.0169890001416 -0.132982492447 -0.0435855016112
0.0110564995557 -0.128138497472 -0.0431374981999
0.00252350000665 -0.118047997355 0.0215774998069
0.00577499996871 -0.118618503213 -0.0216860007495
-0.0233834981918 -0.0265510007739 0.00307299988344
-0.00978249963373 0.0206885002553 -0.0064400001429
0.00207549985498 -0.128957495093 0.0448629967868
0.0394519977272 0.0887390002608 -0.017009999603
0.0307579990476 0.102795004845 -0.0134819997475
0.0412089973688 0.0859915018082 -0.0175979994237
0.0179654993117 0.12255949527 -0.00951649993658
0.0147770000622 -0.0767934992909 0.0070874998346
-0.00479499995708 -0.119237996638 0.0384999997914
-0.0170974992216 -0.0448139980435 -0.00624049967155
0.0194494985044 -0.0409709997475 0.00418599974364
0.0550199970603 0.0556220002472 0.0338170006871
0.0465254969895 0.0688589960337 0.0310344994068
0.05219899863 0.0670599937439 0.0235865004361
0.0634164959192 0.0428260006011 0.036193497479
0.0626149997115 0.0393959991634 0.0421154983342
0.0618660002947 0.0441769994795 0.0370929986238
0.0559720024467 0.0572495013475 0.0300159994513
0.0529549978673 0.0593634955585 0.0324555002153
0.0636475011706 0.0391579978168 0.0406384989619
0.0515024960041 0.062208995223 0.0312024988234
0.0377440005541 0.0820470005274 0.0288119986653
0.0596329979599 0.0426299981773 0.0430044978857
0.0290289986879 0.100442998111 0.0195894986391
0.0545684993267 0.0619184970856 0.026278000325
0.0590940006077 0.0452025011182 0.04054049775
0.0476525016129 0.0715644955635 0.0255079995841
0.0609594993293 0.0488425008953 0.0324974991381
0.0663670003414 0.0385315008461 0.0367604978383
0.0619884990156 0.0465745031834 0.0337155014277
0.0413244999945 0.076401501894 0.0300719998777
0.0420630015433 0.0774725005031 0.0273804999888
0.0409359969199 0.0829114988446 0.0221409983933
0.0665069967508 0.0443345010281 0.0288434997201
0.0528920032084 0.0537285022438 0.0400084964931
0.0525979995728 0.0608929991722 0.0310485009104
0.0320810005069 0.0985530018806 0.016799999401
-0.00152599997818 0.0343840010464 -0.076261498034
-0.0430710017681 -0.127315998077 -0.0100170001388
0.0736504942179 0.0353009998798 0.0187879987061
0.007650999818 0.0243740007281 0.00832999963313
-0.0625870004296 0.0352870002389 -0.0503754988313
-0.00542499963194 0.0344539992511 -0.0796529948711
-0.0144584998488 -0.0186199992895 0.0134889995679
-0.0149520002306 -0.0179689992219 0.0118054999039
0.0109479995444 -0.0670424997807 -0.00430849986151
0.00718550011516 -0.0272719990462 -0.0222810003906
0.0153299998492 -0.0941220000386 0.0165794994682
0.0752324983478 0.035024497658 -0.0130199994892
0.0112839993089 0.0150289991871 -0.00123199995141
-0.0212520007044 -0.0970725044608 -0.00139650003985
-0.0150115005672 -0.114632003009 -0.00681099994108
-0.00572249945253 -0.119237996638 0.0264039989561
-0.0116830002517 -0.0680049955845 -0.00156800006516
0.00998899992555 -0.104642994702 0.00608299952
0.000801499991212 0.0815814957023 -0.0474004969001
0.00262499996461 0.0806469991803 -0.048016499728
-0.00566299958155 0.0652574971318 -0.0581910014153
-0.00919099990278 0.0416919998825 -0.0737660005689
-0.00225750007667 0.0876190066338 -0.0434104986489
0.00425600027665 0.0413910001516 -0.0739654973149
0.00547399977222 0.0661990046501 -0.0575679987669
0.00440650014207 0.0685895010829 -0.0559895001352
-0.00221899989992 0.0630244985223 -0.0596679970622
0.00801500026137 0.05013750121 -0.0681834965944
-0.00408450001851 0.0768425017595 -0.0505330003798
-0.00601649982855 0.0505924969912 -0.0678825005889
0.00146999990102 0.0642844960093 -0.0588349997997
0.00641900021583 0.041496001184 -0.0738954991102
-0.00267049996182 0.089855492115 -0.0419334992766
0.00312900007702 0.0357280001044 -0.0777105018497
-0.00245000002906 0.0692090019584 -0.0555800013244
0.00323399971239 0.0864429995418 -0.0441874973476
-0.00144899997395 0.0761670023203 -0.0509774982929
-0.00327949994244 0.0745674967766 -0.0520379990339
0.000608999980614 0.080009996891 -0.048440001905
-0.000139999989187 0.0390809997916 -0.0754915028811
-0.0168594997376 -0.0376705005765 0.0133525002748
-0.0215600002557 -0.0952944979072 0.00512399990112
0.020453998819 -0.096712000668 -0.00663949968293
-0.0752955004573 0.0346990004182 0.0131355002522
0.0778189972043 0.03732400015 -0.00954450014979
0.0261100009084 -0.119237996638 0.00606900034472
0.0306145008653 -0.119237996638 0.00137549999636
0.026207998395 -0.119237996638 0.0116760004312
0.0300790015608 -0.119237996638 0.00309049990028
0.0605429969728 0.0348424986005 -0.047036498785
0.0111684994772 -0.0647045001388 0.00348949991167
0.00880249962211 -0.0643125027418 0.00773149961606
0.00981399975717 0.0190260000527 -0.00638399971649
-0.00483699981123 -0.0514954999089 0.0143430000171
-0.0101220002398 -0.0271074995399 0.0211539994925
-0.000311500014504 0.0104649998248 -0.00781899970025
-0.0428224988282 -0.123927995563 0.00221899989992
-0.0451640002429 -0.129699498415 0.00184799998533
0.00175349996425 -0.119237996638 0.0277234986424
0.000808499928098 -0.119237996638 0.0353429988027
0.000374499999452 0.0126245003194 0.00946050044149
0.0550689995289 0.0362844988704 0.0575854964554
0.000164500001119 -0.0551145002246 0.0134679991752
0.0136359995231 -0.0539139956236 0.00324450014159
-0.0100555000827 -0.039021499455 -0.0181579999626
-0.0129885002971 -0.0352870002389 -0.0184134989977
0.00535849994048 -0.093471005559 -0.0221549998969
-0.0170379988849 -0.119237996638 0.0234989989549
-0.0186235010624 -0.119237996638 0.0342614986002
0.019687499851 -0.117144994438 0.00462349969894
-0.00852950010449 0.0369844995439 0.0768494978547
0.02209199965 -0.0309994984418 0.00789249967784
0.00801149941981 -0.1208864972 0.040907997638
0.0153475003317 -0.12360599637 0.0400854982436
0.0206080004573 -0.12031249702 0.0358504988253
-0.00626150006428 -0.0105560002849 0.00693699950352
0.0121554993093 -0.119237996638 -0.0267225001007
-0.0370685011148 0.042024500668 0.0635214969516
-0.028091000393 0.054239500314 0.0593844987452
-0.0315279997885 0.0626779943705 0.0509565025568
-0.0353884994984 0.052622500807 0.0564024969935
-0.0166739989072 0.100201494992 0.0308944992721
-0.0349824987352 0.0507499985397 0.0580650009215
-0.021643999964 0.086184002459 0.0387239977717
-0.0335404984653 0.0599164962769 0.051905002445
-0.0471834987402 0.0354410000145 0.0627060011029
-0.025651499629 0.0784699991345 0.0423009991646
-0.0356649979949 0.0437394976616 0.0630209967494
-0.0450624972582 0.0378454998136 0.0620970018208
-0.0192079991102 0.0974925011396 0.0315000005066
-0.0329839996994 0.0356299988925 0.0707594975829
-0.0295959990472 0.07089599967 0.045800998807
-0.0351190008223 0.0573965013027 0.0529164969921
-0.0167020000517 0.0902929976583 0.0384404994547
-0.0288539975882 0.0653589963913 0.0504559986293
-0.0321195013821 0.0525909997523 0.0583169981837
-0.0136815002188 -0.0303555000573 -0.0190995000303
0.0286194998771 -0.130094990134 -0.0354795008898
-0.03494399786 -0.119237996638 -0.0184415001422
-0.0284655001014 0.0370404981077 -0.0720020011067
0.00276850000955 0.0365504994988 0.079481497407
0.0050714998506 0.0276289992034 -0.00722050014883
0.0032689999789 -0.0959104970098 -0.0218364987522
0.0519610010087 0.0368514992297 0.0600599981844
-0.00938349962234 -0.058992497623 -0.00717150000855
-0.0120994998142 -0.0303099993616 0.0200129989535
0.0704760029912 0.0336209982634 -0.0321195013821
0.00243599992245 0.108758993447 -0.0294384993613
0.000605500012171 0.127792000771 -0.0168559998274
0.00241499999538 0.11604949832 -0.0246190000325
0.000584500026889 0.112608999014 -0.0268904995173
-0.019463500008 -0.0939855054021 0.0115080000833
0.018921000883 -0.0425949990749 -0.00331799988635
-0.062503002584 0.0363859981298 0.0500814989209
-0.00910349935293 -0.115198999643 -0.0146789997816
0.0207620002329 0.120935499668 0.00515550002456
0.0163099989295 0.127708002925 0.00447300029919
0.028258997947 0.108240999281 0.00960049964488
0.0260749999434 0.111058503389 0.0105455005541
-0.0182875003666 0.0363405011594 -0.0775460004807
-0.00251649995334 -0.046658501029 0.0172304995358
-0.00314999977127 -0.0341599993408 0.0229180008173
0.036438498646 -0.124095991254 0.0226659998298
-0.0207969993353 -0.0816375017166 -0.00388150010258
-0.0201845001429 -0.0810354948044 0.00470749987289
-0.0608929991722 0.0362039990723 0.0518104992807
0.00666749989614 -0.0504699982703 0.0141259999946
0.0111964996904 -0.0393050014973 0.0173495002091
-0.0119664995 -0.0169785004109 0.0129814995453
-0.00331799988635 -0.0766604989767 0.01580950059
-0.0359729975462 0.0983010008931 0.0061984998174
-0.0500464960933 0.0771820023656 0.00759849976748
-0.0154840005562 0.12965400517 0.00258999993093
-0.0564970001578 0.0676689967513 0.00782249961048
-0.0179375000298 -0.115779995918 -0.00314999977127
-0.0116899991408 -0.110785491765 -0.00042699999176
0.00999949965626 -0.0552089996636 0.00898449961096
0.00839999970049 0.0223544985056 0.00813400000334
-0.0376425012946 0.034849498421 0.0704305022955
0.00489649968222 0.019074998796 -0.0106715001166
0.0795969963074 0.0346990004182 -0.0110774999484
0.00521499989554 -0.119713999331 -0.0411109998822
-0.00141049991362 -0.129153504968 -0.0449434965849
-0.0129324998707 -0.114691503346 -0.0103984996676
-0.00695449998602 -0.0885289981961 0.0222319997847
-0.0223685000092 -0.0916405022144 -0.00592550029978
-0.014699999243 -0.119237996638 -0.0311429984868
-0.0111684994772 -0.119237996638 -0.0374500006437
0.000808499928098 0.10457649827 0.000545999966562
-0.00906849931926 -0.0629964992404 0.00746550038457
-0.0106399999931 0.0222845003009 0.00495600001886
-0.0315839983523 0.03609899804 0.0738359987736
-0.0196979995817 -0.082638502121 -0.00932049937546
-0.0112594999373 -0.107533998787 0.00315349991433
0.00510649988428 -0.131200999022 0.0457729995251
-0.0101570002735 -0.0627375021577 0.00579249998555
0.0201249998063 -0.0848364979029 0.0102619994432
-0.0595280006528 0.036084998399 -0.0481530018151
-0.0145565001294 -0.0845635011792 0.0172129999846
0.0076790000312 0.0801220014691 0.0480129979551
0.00646100006998 0.102514997125 0.0330189988017
0.00443449988961 0.128523498774 0.0157639998943
0.00470399996266 0.123263001442 0.0192884989083
0.0641339942813 0.0370404981077 0.0426019988954
0.0327145010233 0.0968834981322 0.0179130006582
0.0464274995029 0.06767950207 0.0327634997666
0.0435224995017 0.0749664977193 0.0281645003706
0.0665454939008 0.0408904999495 0.0333305001259
0.0508094988763 0.0687434971333 0.0237719994038
0.0271074995399 0.105164498091 0.0166739989072
0.0418424978852 0.0809829980135 0.0231209993362
0.0699054971337 0.0370300002396 0.0326164998114
0.0462034977973 0.0751625001431 0.0232609994709
0.0229704976082 0.110137999058 0.0172620005906
0.0180564988405 0.119885504246 0.0128939999267
0.0433019995689 0.0808605030179 0.0207550004125
0.0546104982495 0.0544530004263 0.036074500531
0.0398615002632 0.0801815018058 0.0276079978794
0.0520834997296 0.063472494483 0.0285285003483
0.0467845015228 0.0712565034628 0.027419000864
0.058779001236 0.0550725013018 0.0280349999666
0.050760500133 0.0646799951792 0.029224999249
0.0448979996145 0.0711549967527 0.030813999474
0.0504840016365 0.0667345002294 0.026985000819
0.0512259975076 0.0345204994082 -0.0565389990807
0.0126630002633 -0.0131319994107 -0.00156450003851
-0.0227955002338 -0.118852995336 -0.00197750004008
-0.0233834981918 -0.0268240012228 -0.00113049999345
0.0760234966874 0.0351260006428 -0.00188300001901
-0.0170904994011 -0.0811790004373 -0.0120084993541
-0.0149905001745 0.0334529988468 0.0763314962387
-0.0129359988496 -0.0525279976428 0.00687400018796
-0.0207234993577 -0.094944499433 -0.00865199975669
0.00577849987894 0.0346115007997 -0.0761635005474
-0.0109514994547 -0.0849414989352 0.0197714995593
-0.00973699986935 0.0136080002412 -0.00309049990028
0.00717499991879 0.0284024998546 -0.0039584999904
0.0194074995816 -0.0200479999185 0.00960399955511
-0.0435959994793 -0.125835493207 -0.00447300029919
-0.044670496136 -0.128484994173 -0.00407399982214
-0.00085750001017 0.0560105033219 0.000461999996332
-0.0177484992892 -0.0780149996281 0.00358399981633
0.010587499477 -0.113375499845 -0.00992599967867
-0.0213500000536 -0.0377020016313 0.00234499992803
-0.0223195012659 -0.0355600006878 0.00233100005426
0.0370000004768 -0.247230000049 -0.306959986687
0.160850003362 -0.256689998507 0.255930006504
0.142199993134 -0.261580000818 -0.298649996519
-0.0092399995774 -0.264760001749 0.2845300138
-0.167030006647 -0.387920002639 0.347299993038
-0.167030006647 -0.251200000942 -0.184139996767
-0.167030006647 -0.250190000236 0.0850699990988
-0.167030006647 -0.249120000005 -0.0317599996924
0.0715200006962 -0.253040000051 0.428220003843
-0.131270006299 -0.46833999753 0.437860012054
-0.128610000014 -0.46833999753 0.427560001612
-0.090300001204 -0.310719999671 -0.293460011482
-0.141929998994 -0.141959998012 -0.43452000618
0.125850006938 -0.248049999774 0.301880002022
0.150150001049 -0.249329998344 0.29879000783
-0.167030006647 -0.251779998839 0.391019999981
0.161699995399 -0.157490003109 -0.429650008678
-0.0865600034595 -0.308259999566 0.268500000238
0.131569996476 -0.251790001243 0.294330000877
0.167030006647 -0.250789999217 -0.328440010548
-0.0518799982965 -0.237690000981 -0.428169995546
-0.0760800018907 -0.298029999901 0.282150000334
-0.0151500003412 -0.303809999907 0.262010008097
-0.0765200033784 -0.333920001239 0.262010008097
-0.057310000062 -0.313089999557 0.262010008097
-0.135399997234 -0.299980000001 0.262010008097
-0.154149994254 -0.281499999762 0.262010008097
-0.11359000206 -0.325720000267 0.262010008097
-0.0414500012994 -0.331230000779 0.262010008097
-0.0928300023079 -0.313570000418 0.262010008097
0.0762099996209 -0.32652999945 0.262010008097
0.00130000000354 -0.257180000842 -0.256309986115
0.117150001228 -0.241799998283 0.437720000744
-0.0445999987423 -0.146450001001 -0.424710005522
0.018449999392 -0.334060001373 -0.28317001462
-0.150780007243 -0.351669999957 -0.29172000289
-0.130260005593 -0.13327999711 -0.422520011663
-0.0321299992502 -0.23837999925 0.427890002728
-0.102099999785 -0.233179996908 -0.439920008183
-0.117610000074 -0.269410000369 0.293949991465
-0.0473200008273 -0.142140004039 -0.0464500002563
-0.154049992561 -0.142140004039 0.268579989672
-0.142199993134 -0.142140004039 -0.205610007048
-0.019750000909 -0.142140004039 -0.35585001111
-0.00820000004023 -0.142140004039 -0.0527300015092
-0.107550002635 -0.142140004039 -0.119460001588
-0.148000001907 -0.142140004039 -0.329160004854
-0.0975999981165 -0.142140004039 -0.369089990854
-0.0249799992889 -0.142140004039 -0.303770005703
-0.061930000782 -0.142140004039 0.0710899978876
-0.125180006027 -0.142140004039 -0.279370009899
-0.164030000567 -0.142140004039 -0.405250012875
-0.0327299982309 -0.142140004039 -0.214320003986
-0.0168299991637 -0.142140004039 -0.160490006208
-0.0418500006199 -0.142140004039 -0.0944700017571
-0.00791000016034 -0.142140004039 -0.181130006909
-0.0717599987984 -0.142140004039 0.122900001705
-0.0394000001252 -0.142140004039 -0.0669099986553
0.0363700017333 -0.142140004039 -0.153850004077
-0.163159996271 -0.142140004039 -0.279220014811
0.0895100012422 -0.142140004039 -0.233329996467
-0.125300005078 -0.142140004039 -0.197209998965
0.0610999986529 -0.142140004039 -0.362560003996
0.0157600007951 -0.142140004039 -0.126460000873
-0.0715600028634 -0.142140004039 -0.237739995122
0.115330003202 -0.142140004039 -0.353020012379
-0.134220004082 -0.142140004039 0.170149996877
-0.142419993877 -0.142140004039 -0.160089999437
-0.0116800004616 -0.142140004039 -0.133640006185
-0.0707499980927 -0.142140004039 -0.229640007019
-0.0154200000688 -0.142140004039 -0.368730008602
-0.0457400009036 -0.142140004039 -0.0689300000668
-0.115570001304 -0.142140004039 0.189109995961
0.0528299994767 -0.142140004039 -0.275240004063
-0.106959998608 -0.142140004039 0.189610004425
-0.0761800035834 -0.142140004039 -0.263040006161
0.0667999982834 -0.142140004039 -0.405039995909
-0.115280002356 -0.142140004039 0.266589999199
-0.133870005608 -0.142140004039 0.0894899964333
0.0966399982572 -0.142140004039 -0.319480001926
-0.157580003142 -0.142140004039 -0.319799989462
0.0054999999702 -0.142140004039 -0.035909999162
-0.0498000010848 -0.142140004039 -0.325769990683
-0.0977300032973 -0.142140004039 -0.0563799999654
0.0326500013471 -0.142140004039 -0.293269991875
-0.000339999998687 -0.142140004039 -0.36496001482
-0.0723899975419 -0.142140004039 -0.125300005078
0.0523900017142 -0.142140004039 -0.309749990702
-0.105060003698 -0.142140004039 0.0378499999642
-0.060720000416 -0.142140004039 -0.247610002756
-0.0872899964452 -0.142140004039 0.0456900000572
0.0386300012469 -0.142140004039 -0.28843998909
-0.140670001507 -0.142140004039 0.261299997568
-0.0337999984622 -0.142140004039 -0.265379995108
-0.0616500005126 -0.142140004039 0.0195799991488
-0.0524899996817 -0.142140004039 -0.205589994788
0.0794200003147 -0.142140004039 -0.205660000443
-0.0400499999523 -0.142140004039 -0.320670008659
0.107289999723 -0.142140004039 -0.290560007095
0.0359600000083 -0.142140004039 -0.333869993687
-0.0635399967432 -0.142140004039 0.043639998883
-0.139139994979 -0.142140004039 0.292739987373
-0.112379997969 -0.142140004039 0.0632800012827
-0.0965700000525 -0.142140004039 0.10407000035
0.0442500002682 -0.142140004039 -0.112559996545
0.0767299979925 -0.142140004039 -0.356889992952
0.0370399989188 -0.142140004039 -0.200650006533
-0.142360001802 -0.142140004039 0.167309999466
-0.166199997067 -0.142140004039 0.0761099979281
-0.0304300002754 -0.142140004039 -0.152250006795
-0.126809999347 -0.142140004039 0.107560001314
-0.141790002584 -0.142140004039 -0.0203900001943
-0.134220004082 -0.142140004039 0.16087000072
-0.0909800007939 -0.142140004039 -0.210260003805
0.0212699994445 -0.142140004039 -0.311190009117
-0.122890003026 -0.142140004039 -0.0890400037169
-0.0238600000739 -0.142140004039 0.0303700007498
-0.0717900022864 -0.142140004039 -0.0365700013936
0.00977000035346 -0.142140004039 -0.247490003705
0.0671299993992 -0.142140004039 -0.410919994116
-0.16425999999 -0.142140004039 0.0288200005889
-0.139170005918 -0.142140004039 0.332379996777
-0.124609999359 -0.142140004039 0.0164000000805
0.0422599986196 -0.142140004039 -0.367729991674
-0.155039995909 -0.142140004039 0.0453899987042
-0.166659995914 -0.142140004039 -0.360229998827
0.0449500009418 -0.142140004039 -0.249939993024
-0.00531999999657 -0.142140004039 -0.241879999638
-0.0167599990964 -0.142140004039 -0.127460002899
-0.0806099995971 -0.142140004039 -0.37226998806
0.030589999631 -0.142140004039 -0.140200003982
0.0206899996847 -0.142140004039 -0.407539993525
-0.137429997325 -0.142140004039 -0.365929991007
-0.0848100036383 -0.142140004039 -0.0136900003999
0.0252100005746 -0.142140004039 -0.328040003777
-0.165309995413 -0.142140004039 0.276199996471
-0.121969997883 -0.142140004039 -0.392280012369
-0.159840002656 -0.142140004039 0.356249988079
-0.042500000447 -0.142140004039 -0.40406998992
-0.146640002728 -0.142140004039 0.0757300034165
-0.127399995923 -0.142140004039 0.291489988565
-0.13898999989 -0.142140004039 0.0997700020671
-0.0286299996078 -0.142140004039 -0.191139996052
-0.0778900012374 -0.142140004039 -0.0574799999595
-0.129820004106 -0.142140004039 0.0530400015414
0.12661999464 -0.142140004039 -0.37718001008
-0.150079995394 -0.142140004039 0.163859993219
-0.0408199988306 -0.142140004039 -0.33382999897
-0.0496300011873 -0.142140004039 -0.110569998622
-0.0748599991202 -0.142140004039 0.0239899996668
0.0700900033116 -0.142140004039 -0.282099992037
-0.144610002637 -0.142140004039 -0.0392200015485
-0.0780199989676 -0.142140004039 -0.334589987993
-0.165059998631 -0.142140004039 -0.249270007014
0.146549999714 -0.26711999923 -0.250189989805
-0.0373799987137 -0.246509998292 -0.417250007391
-0.0396099984646 -0.265890001506 -0.260919988155
-0.136620000005 -0.252789999545 0.251960009336
0.079779997468 -0.370869997144 -0.328790009022
-0.0854900032282 -0.377339999378 -0.336180001497
-0.0764999985695 -0.375589999557 -0.334170013666
0.10990999639 -0.359659998864 -0.315970003605
-0.0442700013518 -0.419690001011 -0.384570002556
-0.0269600003958 -0.361039999127 -0.317539989948
-0.0507100000978 -0.425279992819 -0.390969991684
-0.0721099972725 -0.424750003219 -0.390359997749
0.0329499989748 -0.374740000069 -0.333209991455
-0.13792000711 -0.456859993935 -0.427060008049
0.109999999404 -0.349499999732 -0.304349988699
-0.0201999992132 -0.409600000083 -0.373050004244
-0.129669994116 -0.358720000088 -0.314900010824
-0.128380000591 -0.374390001595 -0.332810014486
-0.0406700000167 -0.363060000539 -0.319849997759
0.0375000014901 -0.362919996679 -0.31968998909
-0.0226199999452 -0.363100002706 -0.319900006056
-0.116640001535 -0.443279999495 -0.411540001631
-0.00705000013113 -0.405679996312 -0.368569999933
-0.0764300003648 -0.346059999615 -0.300419986248
-0.0360799990594 -0.414790000021 -0.378969997168
-0.0089800003916 -0.361659999192 -0.318260014057
-0.114229999483 -0.437480005622 -0.404909998178
-0.0465499982238 -0.358240000159 -0.314350008965
-0.0816200003028 -0.350990000367 -0.306069999933
-0.140689998865 -0.431009995937 -0.397520005703
0.0634500011802 -0.155320006609 -0.439850002527
-0.0415199995041 -0.132460001111 0.420100003481
-0.120499998331 -0.251570000499 0.430130004883
-0.0747200027108 -0.24790000096 0.242750003934
0.133890002966 -0.259679998457 0.301120012999
0.167030006647 -0.250589999557 -0.152689993382
0.167030006647 -0.251310001314 -0.119319997728
-0.167030006647 -0.448450002074 -0.402079999447
-0.0323200002313 -0.267620000243 -0.26129001379
0.0901300013065 -0.304610000178 -0.251529991627
-0.0589900016785 -0.279870000854 -0.251529991627
0.0509000010788 -0.290690000355 -0.251529991627
0.0810799971223 -0.295759999845 -0.251529991627
0.0315000005066 -0.29507999979 -0.251529991627
0.0434900000691 -0.289339999855 -0.251529991627
0.0648199990392 -0.295289999992 -0.251529991627
0.147090002894 -0.28060999997 -0.251529991627
-0.0954300016165 -0.279089999571 -0.251529991627
-0.120030000806 -0.252089998871 -0.429459989071
-0.0254800003022 -0.336540001631 0.294860005379
-0.00685000000522 -0.28148999922 0.262010008097
0.104840002954 -0.288379999995 0.262010008097
-0.0659999996424 -0.285460000113 0.262010008097
0.0842899978161 -0.292039999925 0.262010008097
0.160019993782 -0.300549999997 0.262010008097
0.141880005598 -0.315890000388 0.262010008097
-0.151209995151 -0.284740000218 0.282970011234
0.0909200012684 -0.329249999672 0.282970011234
0.0753199979663 -0.329370000586 0.282970011234
-0.102279998362 -0.301560000004 0.282970011234
-0.106780000031 -0.308620000444 0.282970011234
-0.0552200004458 -0.313899999671 0.282970011234
-0.137840002775 -0.301640000031 0.282970011234
-0.00436000013724 -0.302829999896 0.282970011234
-0.079120002687 -0.307919999771 0.301649987698
-0.167030006647 -0.25312999934 0.225219994783
-0.167030006647 -0.251680000871 0.204370006919
-0.0701799988747 -0.25958000049 0.243740007281
-0.0596100017428 -0.241250000149 0.425929993391
-0.0414899997413 -0.249069999158 -0.299409985542
-0.0167500004172 -0.268010000885 0.294429987669
0.119929999113 -0.336029998213 0.259669989347
-0.0780299976468 -0.296100000106 -0.295769989491
0.152060002089 -0.294070000015 0.251529991627
0.134959995747 -0.298280000058 0.251529991627
0.117969997227 -0.305669999868 0.251529991627
-0.108050003648 -0.325620000437 0.251529991627
0.127440005541 -0.324760000408 0.251529991627
-0.15068000555 -0.333209998161 0.251529991627
0.0663700029254 -0.314010000043 0.251529991627
0.120739996433 -0.328510000557 0.251529991627
0.108900003135 -0.316219999641 0.251529991627
0.102480001748 -0.2469400011 0.31560999155
-0.0496499985456 -0.2469400011 0.341360002756
-0.0156999994069 -0.2469400011 0.331310003996
-0.0982799977064 -0.2469400011 0.319990009069
0.126269996166 -0.2469400011 0.388819992542
0.0467699989676 -0.2469400011 0.324519991875
-0.0441900007427 -0.2469400011 0.331669986248
0.040190000087 -0.2469400011 0.362749993801
0.0799100026488 -0.2469400011 0.333579987288
0.0227099992335 -0.2469400011 0.364670008421
0.153520002961 -0.2469400011 0.33805000782
-0.0221200007945 -0.2469400011 0.33043000102
0.059889998287 -0.2469400011 0.324360013008
-0.0075300000608 -0.2469400011 0.350639998913
0.108230002224 -0.2469400011 0.345140010118
-0.0236300006509 -0.256620000303 0.420060008764
-0.167030006647 -0.248380000889 -0.0652400031686
0.0466599985957 -0.257389999181 0.414240002632
-0.089500002563 -0.297389999917 -0.274830013514
-0.167030006647 -0.250150001794 0.325569987297
-0.162180006504 -0.131870004535 -0.415580004454
0.0858599990606 -0.332230000943 0.282999992371
0.0566999986768 -0.245539999753 -0.420150011778
0.00618000002578 -0.246959998459 0.309060007334
0.101989999413 -0.258110000938 -0.287970006466
-0.0281300004572 -0.13166000247 -0.220640003681
0.159620001912 -0.13166000247 0.0310399997979
0.0729599967599 -0.13166000247 0.11427000165
0.0176199991256 -0.13166000247 0.011979999952
0.156959995627 -0.13166000247 0.341039985418
0.0491099990904 -0.13166000247 -0.145610004663
0.00834999978542 -0.13166000247 -0.143169999123
-0.023730000481 -0.13166000247 -0.388390004635
0.161510005593 -0.13166000247 -0.382569998503
-0.00879999995232 -0.13166000247 -0.281329989433
0.159400001168 -0.13166000247 -0.19618999958
0.0882499963045 -0.13166000247 -0.204679995775
0.114969998598 -0.13166000247 -0.303339987993
0.0609100013971 -0.13166000247 -0.373479992151
0.0466899983585 -0.13166000247 -0.0511200018227
-0.102629996836 -0.13166000247 -0.259739995003
-0.0430600009859 -0.13166000247 -0.3450999856
0.124219998717 -0.13166000247 0.244780004025
0.150289997458 -0.13166000247 0.365929991007
0.103770002723 -0.13166000247 -0.284960001707
0.0161400008947 -0.13166000247 -0.0453100018203
0.1407700032 -0.13166000247 -0.0463699996471
0.0556199997663 -0.13166000247 -0.410739988089
-0.0406600013375 -0.13166000247 -0.355179995298
0.13300999999 -0.13166000247 0.26710999012
0.0749199986458 -0.13166000247 0.0389400012791
-0.0488499999046 -0.13166000247 -0.240810006857
0.13737000525 -0.13166000247 -0.398820012808
0.129789993167 -0.13166000247 -0.138679996133
0.166950002313 -0.13166000247 -0.387959986925
-0.0619999989867 -0.13166000247 -0.356449991465
0.0283599998802 -0.13166000247 -0.269259989262
0.118780001998 -0.13166000247 0.101120002568
0.15001000464 -0.13166000247 0.321370005608
0.127670004964 -0.13166000247 0.176310002804
0.160420000553 -0.13166000247 0.386940002441
0.0715399980545 -0.13166000247 -0.0711200013757
0.0118000004441 -0.13166000247 -0.0549900010228
0.105800002813 -0.13166000247 -0.0292300004512
0.0953200012445 -0.13166000247 0.0128499995917
0.0725999996066 -0.13166000247 -0.26791998744
0.140330001712 -0.13166000247 -0.209810003638
0.153909996152 -0.13166000247 -0.0852800011635
0.0760200023651 -0.13166000247 0.142000004649
0.157440006733 -0.13166000247 0.319920003414
-0.0431899987161 -0.13166000247 -0.130150005221
0.145590007305 -0.13166000247 0.0211100000888
0.0868699997663 -0.13166000247 -0.269470006227
-0.136370003223 -0.13166000247 -0.346529990435
0.159789994359 -0.13166000247 -0.183239996433
0.124370001256 -0.13166000247 -0.221990004182
0.0826999992132 -0.13166000247 -0.129679992795
0.0760599970818 -0.13166000247 0.0559500008821
0.0726099982858 -0.13166000247 -0.148320004344
0.164350003004 -0.13166000247 0.123709999025
-0.0263199992478 -0.13166000247 -0.173580005765
-0.0204399991781 -0.13166000247 -0.334210008383
0.128639996052 -0.13166000247 -0.294400006533
0.119130000472 -0.13166000247 -0.0579099990427
0.028710000217 -0.13166000247 -0.144409999251
0.165529996157 -0.13166000247 0.153449997306
0.0876099988818 -0.13166000247 0.117169998586
0.161640003324 -0.13166000247 -0.058410000056
-0.0838700011373 -0.13166000247 -0.326339989901
0.0305700004101 -0.13166000247 -0.340299993753
0.1472799927 -0.13166000247 0.0853699967265
0.0475599989295 -0.13166000247 -0.385699987411
0.129899993539 -0.13166000247 0.314740002155
0.027820000425 -0.13166000247 -0.150049999356
0.151179999113 -0.13166000247 0.134900003672
0.161669999361 -0.13166000247 -0.39265999198
0.119110003114 -0.13166000247 -0.259589999914
0.0458699986339 -0.13166000247 -0.324400007725
0.0999400019646 -0.13166000247 -0.176210001111
0.163910001516 -0.13166000247 0.321229994297
0.0474199987948 -0.13166000247 0.0246600005776
-0.0189699996263 -0.13166000247 -0.369029998779
-0.025079999119 -0.13166000247 -0.372779995203
-0.014630000107 -0.13166000247 -0.125750005245
0.0202699992806 -0.13166000247 -0.0562199987471
-0.0179500002414 -0.13166000247 -0.350540012121
0.0769800022244 -0.13166000247 -0.21344999969
-0.0510400012136 -0.13166000247 -0.363079994917
0.161439999938 -0.13166000247 0.256980001926
-0.0694599971175 -0.13166000247 -0.329899996519
-0.0197100006044 -0.13166000247 -0.252389997244
-0.0318499989808 -0.13166000247 -0.253969997168
0.0363099984825 -0.13166000247 -0.1092299968
0.122309997678 -0.13166000247 -0.000569999974687
0.141470000148 -0.13166000247 0.25936999917
0.153200000525 -0.13166000247 0.0072400001809
0.109209999442 -0.13166000247 0.186289995909
0.01070000045 -0.13166000247 -0.0637700036168
0.129549995065 -0.13166000247 -0.187030002475
-0.0492900013924 -0.13166000247 -0.188600003719
0.0887800008059 -0.13166000247 -0.0278099998832
0.151600003242 -0.13166000247 -0.312440007925
0.129649996758 -0.13166000247 0.112659998238
0.114929996431 -0.13166000247 -0.249950006604
-0.0330700017512 -0.13166000247 -0.409889996052
0.161390006542 -0.13166000247 0.0249799992889
0.0973699986935 -0.13166000247 -0.251109987497
0.0599399991333 -0.13166000247 -0.151749998331
-0.0669500008225 -0.13166000247 -0.298990011215
-0.0176400002092 -0.13166000247 -0.146129995584
0.103730000556 -0.13166000247 -0.270969986916
0.0718299970031 -0.13166000247 -0.109219998121
0.082889996469 -0.13166000247 -0.0460000000894
0.121150001884 -0.13166000247 -0.332569986582
