0.00174 -0.04077 0.08888
-0.22679 0.05404 0.00228
0.11448 -0.03773 0.10799
-0.11011 -0.01678 -0.03311
0.08631 -0.06043 -0.09151
0.2881 -0.03927 -0.01102
-0.18665 -0.00449 0.02078
0.08972 -0.04523 -0.02319
0.02078 -0.04615 -0.02225
-0.03472 -0.04731 -0.02109
-0.2539 -0.01938 -0.02506
-0.14429 -0.02685 0.02969
0.05806 -0.02245 -0.02447
0.13912 -0.03835 -0.18195
0.07618 -0.03133 -0.10141
0.14997 -0.02101 0.1647
0.03032 -0.02653 -0.18115
-0.19332 -0.01255 0.00514
0.04329 -0.0518 -0.04553
0.05374 -0.05256 -0.03602
0.03552 -0.05256 -0.01319
0.04935 -0.05256 -0.00336
0.16424 -0.03589 -0.08381
0.11864 -0.04996 -0.17996
-0.23914 -0.02629 -0.0154
-0.27122 -0.02467 0.03208
-0.26613 -0.02441 0.13499
0.20625 0.00315 -0.0257
0.14492 -0.02714 -0.17754
0.27453 -0.00636 0.00773
0.5515 0.27048 0.47334
0.48525 0.28421 0.53713
0.55884 0.15932 0.43193
0.70399 0.62937 0.49706
0.69468 0.64345 0.5095
0.6097 0.77201 0.49418
0.71522 0.61237 0.48589
0.69617 0.6412 0.52278
0.62631 0.74688 0.48768
0.58598 0.8079 0.49471
0.71099 0.61877 0.50404
0.62625 0.74697 0.50127
0.66709 0.68519 0.48098
0.66684 0.68557 0.49784
0.64022 0.72584 0.49025
0.61382 0.76578 0.48679
0.70295 0.63093 0.51295
0.68416 0.65936 0.4822
0.70085 0.63412 0.50623
0.5729 0.82769 0.49654
0.69762 0.639 0.50588
0.70267 0.63135 0.48187
0.6969 0.64009 0.4988
0.65068 0.71002 0.49743
0.58943 0.80269 0.50048
0.71519 0.61242 0.52396
0.67025 0.68041 0.5102
0.47998 0.52972 0.50975
0.39237 0.15932 0.45982
0.47466 0.429 0.56237
0.60573 0.76145 0.55024
0.57881 0.80748 0.53602
0.6614 0.67349 0.5701
0.54295 0.86226 0.52572
0.55597 0.84065 0.53174
0.62249 0.73855 0.55148
0.56617 0.24999 0.50604
0.52473 0.57943 0.49746
0.5311 0.56121 0.51295
0.39458 0.14576 0.43777
0.38732 0.14316 0.44823
0.55535 0.15932 0.54928
0.53958 0.27316 0.46101
0.47824 0.47363 0.50282
0.53351 0.46355 0.49061
0.48977 0.59961 0.72806
0.43527 0.43484 0.48344
0.45133 0.43066 0.54581
0.46027 0.34535 0.50532
0.50841 0.41553 0.43319
0.50538 0.2743 0.55442
0.36314 0.6054 0.68214
0.44602 0.42137 0.45989
0.47124 0.31523 0.483
0.46464 0.26965 0.45292
0.43491 0.13154 0.61043
0.42977 0.13457 0.60605
0.46971 0.4651 0.51313
0.4528 0.44863 0.52643
0.47386 0.53726 0.51034
0.40572 0.73223 0.59804
0.3699 0.63605 0.65213
0.40617 0.71465 0.61493
0.38177 0.68928 0.61425
0.35189 0.63048 0.63933
0.40052 0.70097 0.62207
0.36903 0.65917 0.62965
0.35483 0.61669 0.65516
0.36127 0.60386 0.67359
0.34601 0.6081 0.65437
0.37294 0.66288 0.6301
0.44055 0.79391 0.57523
0.39204 0.70018 0.61433
0.38659 0.66412 0.64259
0.41838 0.74727 0.59666
0.35307 0.6262 0.64451
0.38907 0.67157 0.6381
0.39317 0.72157 0.59546
0.38571 0.68772 0.61965
0.39557 0.71276 0.6061
0.32887 0.6115 0.63405
0.40463 0.73609 0.59336
0.34858 0.60443 0.66038
0.42883 0.76414 0.59133
0.36909 0.66568 0.62363
0.51119 0.17216 0.54603
0.45912 0.15932 0.59942
0.48392 0.15932 0.6146
0.46721 0.15932 0.60955
0.4514 0.13847 0.38329
0.43347 0.12745 0.38848
0.43337 0.60133 0.71842
0.51717 0.17955 0.53186
0.50265 0.84991 0.49915
0.58397 0.15932 0.47608
0.59542 0.15932 0.43787
0.45878 0.2251 0.45319
0.40486 0.75459 0.57628
0.45145 0.8392 0.54379
0.45376 0.84715 0.53867
0.40888 0.76565 0.56997
0.54907 0.27821 0.51181
0.59697 0.66827 0.64987
0.56461 0.69178 0.65061
0.55834 0.73815 0.61884
0.58006 0.65193 0.6721
0.54172 0.79718 0.58338
0.57311 0.72793 0.61811
0.58489 0.62603 0.68908
0.58965 0.68333 0.6426
0.55428 0.77112 0.59602
0.57782 0.68768 0.64611
0.56213 0.71518 0.63418
0.60661 0.64388 0.66292
0.56651 0.73311 0.61797
0.60825 0.62823 0.67392
0.58746 0.6773 0.64846
0.60153 0.63408 0.67333
0.55354 0.73766 0.62198
0.57896 0.66059 0.66613
0.60234 0.61714 0.68579
0.59138 0.6632 0.65697
0.59797 0.61925 0.6867
0.56912 0.71104 0.6333
0.60951 0.60269 0.69268
0.56216 0.76218 0.59829
0.60251 0.65962 0.65327
0.5578 0.71152 0.63948
0.49744 0.51302 0.4834
0.58778 0.73855 0.59864
0.59912 0.71081 0.61323
0.6332 0.61815 0.66576
0.59389 0.71332 0.61611
0.60804 0.67688 0.63603
0.61703 0.65524 0.64727
0.66518 0.60627 0.64489
0.62134 0.70139 0.59981
0.55274 0.81278 0.56431
0.61313 0.66132 0.64549
0.64974 0.61811 0.64926
0.56938 0.79249 0.56663
0.60183 0.70498 0.61597
0.65216 0.62456 0.64081
0.56997 0.77897 0.57866
0.66146 0.62047 0.63534
0.64564 0.63906 0.63378
0.55207 0.81743 0.56062
0.62897 0.64883 0.64132
0.57734 0.77102 0.57873
0.59706 0.72825 0.59899
0.57234 0.76429 0.59002
0.58573 0.75523 0.58509
0.4367 0.26093 0.49631
0.55602 0.22988 0.46895
0.52361 0.59596 0.27949
0.51519 0.15932 0.40592
0.53159 0.15932 0.38779
0.51671 0.3964 0.5606
0.52101 0.39369 0.55818
0.47316 0.55748 0.52031
0.51593 0.26417 0.55979
0.57749 0.15932 0.57947
0.60046 0.15932 0.49868
0.59213 0.15932 0.5236
0.53168 0.28749 0.51082
0.50541 0.60107 0.51434
0.48437 0.15932 0.39306
0.47667 0.15932 0.42077
0.4827 0.15932 0.41424
0.5334 0.56099 0.49952
0.46664 0.26237 0.44674
0.53193 0.17742 0.52349
0.50336 0.48363 0.48361
0.57315 0.15932 0.46705
0.53056 0.36337 0.5372
0.53831 0.39201 0.54778
0.39461 0.60521 0.70059
0.51201 0.31104 0.46864
0.58805 0.15932 0.42288
0.57057 0.15932 0.44492
0.5078 0.55342 0.53249
0.41049 0.15932 0.48305
0.44469 0.15932 0.41125
0.44943 0.15932 0.39676
0.42812 0.15932 0.4242
0.43702 0.16131 0.51139
0.47886 0.27696 0.54757
0.48001 0.23366 0.56231
0.4666 0.19345 0.49597
0.46757 0.54898 0.50803
0.51597 0.56204 0.52935
0.4536 0.21615 0.468
0.54079 0.17581 0.50945
0.27219 0.59899 0.50825
0.43421 0.25338 0.49148
0.50185 0.50763 0.4833
0.52168 0.59826 0.27249
0.49929 0.24971 0.4338
0.50039 0.76951 0.50278
0.47199 0.18246 0.48171
0.48513 0.15932 0.4286
0.72302 0.60525 0.45774
0.54254 0.16755 0.53432
0.49261 0.53917 0.52843
0.44558 0.84449 0.47067
0.37138 0.69589 0.40273
0.36226 0.68061 0.39833
0.4587 0.86127 0.47012
0.38655 0.72517 0.41518
0.40099 0.75324 0.42727
0.4631 0.28237 0.47621
0.45819 0.22764 0.54765
0.40057 0.11881 0.58915
0.41366 0.12894 0.59643
0.51782 0.13506 0.37355
0.52531 0.14533 0.37987
0.71785 0.6065 0.55285
0.53192 0.85424 0.45451
0.55212 0.79258 0.41911
0.52173 0.86535 0.45711
0.55675 0.79799 0.42591
0.4631 0.16442 0.54665
0.49722 0.7464 0.49999
0.52026 0.33276 0.47237
0.42567 0.60597 0.70783
0.40412 0.13471 0.58358
0.41022 0.12554 0.59494
0.31715 0.60486 0.37949
0.53441 0.20282 0.50665
0.4666 0.3282 0.49895
0.43528 0.43389 0.51658
0.55361 0.22469 0.46887
0.64179 0.61076 0.33591
0.54875 0.82099 0.43939
0.66372 0.60266 0.35027
0.55289 0.81045 0.43367
0.64979 0.64482 0.37576
0.61553 0.66252 0.35804
0.67071 0.61069 0.36477
0.59893 0.69896 0.3755
0.56188 0.78737 0.42109
0.57914 0.76368 0.41621
0.65555 0.63107 0.36866
0.6372 0.6159 0.33614
0.60971 0.68248 0.37088
0.65869 0.61817 0.35975
0.61778 0.70004 0.39537
0.60206 0.71551 0.3941
0.59867 0.73881 0.4125
0.5607 0.80363 0.4351
0.63032 0.63278 0.34502
0.66389 0.61307 0.36017
0.61602 0.65806 0.35436
0.68395 0.59652 0.63313
0.52607 0.83403 0.43585
0.56259 0.68639 0.34461
0.52515 0.80882 0.41835
0.55962 0.69091 0.34691
0.53893 0.76299 0.39068
0.46663 0.23008 0.44524
0.5334 0.32315 0.50066
0.5407 0.28374 0.50667
0.68534 0.60397 0.38515
0.44305 0.24494 0.53484
0.39083 0.13414 0.56516
0.54611 0.24921 0.54759
0.50938 0.58797 0.51554
0.48854 0.55677 0.46849
0.47822 0.44428 0.55599
0.48056 0.33136 0.52737
0.50162 0.27155 0.55716
0.5874 0.12872 0.5955
0.58601 0.12323 0.60003
0.51442 0.75401 0.62161
0.49839 0.78589 0.60053
0.49101 0.61393 0.71419
0.50781 0.62127 0.70934
0.48975 0.6878 0.66536
0.51719 0.69737 0.65904
0.50693 0.83396 0.56876
0.48894 0.68072 0.67004
0.5055 0.61728 0.71198
0.50506 0.70828 0.65183
0.48491 0.66248 0.6821
0.50841 0.60966 0.71701
0.51739 0.63512 0.70019
0.50728 0.82965 0.57161
0.51172 0.79124 0.597
0.50245 0.82503 0.57466
0.48601 0.60505 0.72006
0.47908 0.64906 0.69097
0.491 0.69962 0.65755
0.49657 0.63696 0.69897
0.51443 0.71019 0.65057
0.51185 0.79895 0.5919
0.49699 0.6853 0.66702
0.48356 0.6836 0.66814
0.49672 0.37642 0.55382
0.50685 0.40415 0.56637
0.52356 0.596 0.72041
0.48413 0.49107 0.5053
0.4678 0.15 0.38368
0.46642 0.1425 0.3809
0.53202 0.16932 0.54104
0.37927 0.75533 0.48451
0.3555 0.71937 0.48481
0.45405 0.86847 0.49739
0.32511 0.67339 0.47773
0.37494 0.74878 0.4847
0.50251 0.63189 0.49878
0.56475 0.42893 0.51646
0.27553 0.59994 0.5436
0.54011 0.15932 0.56597
0.54701 0.3989 0.45651
0.53615 0.36751 0.46575
0.34776 0.60623 0.34027
0.54145 0.45841 0.50092
0.29995 0.60666 0.59845
0.38561 0.14571 0.45388
0.3845 0.14649 0.45923
0.4628 0.33972 0.49704
0.54206 0.17398 0.48459
0.4972 0.29033 0.4666
0.44763 0.14632 0.38915
0.44143 0.13644 0.3881
0.49154 0.59035 0.4856
0.47225 0.59627 0.27445
0.50931 0.22669 0.56266
0.48339 0.5053 0.49748
0.52604 0.45412 0.53923
0.52665 0.44227 0.55659
0.64952 0.60659 0.66434
0.4903 0.13367 0.37268
0.50751 0.15638 0.3819
0.49343 0.52696 0.51907
0.54485 0.38847 0.46102
0.54197 0.39421 0.45447
0.47309 0.20798 0.46183
0.48021 0.58543 0.49619
0.50272 0.28337 0.45791
0.54435 0.15932 0.44115
0.55481 0.15932 0.41176
0.54824 0.15932 0.41742
0.51876 0.46172 0.53208
0.39093 0.76294 0.46002
0.39647 0.7701 0.45764
0.38604 0.75503 0.45809
0.45714 0.86936 0.48471
0.31203 0.6329 0.42241
0.49808 0.78421 0.49798
0.71518 0.60617 0.56597
0.44853 0.43538 0.45699
0.47841 0.58097 0.5097
0.47034 0.59794 0.72726
0.64503 0.59921 0.66253
0.45623 0.45072 0.47302
0.45185 0.44924 0.47679
0.56325 0.26109 0.50622
0.4311 0.15932 0.57594
0.47851 0.35139 0.53665
0.52358 0.5458 0.47634
0.72408 0.59608 0.46639
0.61689 0.64795 0.34613
0.59312 0.7075 0.37785
0.53436 0.84771 0.45093
0.57274 0.7573 0.40409
0.58154 0.7308 0.38895
0.34955 0.60068 0.65668
0.5175 0.15747 0.61712
0.53524 0.14862 0.61609
0.56681 0.42885 0.49503
0.37172 0.11864 0.53674
0.37439 0.12386 0.53852
0.51704 0.53812 0.47684
0.41099 0.5988 0.69993
0.49466 0.45085 0.55123
0.50027 0.45998 0.53942
0.37671 0.1436 0.49209
0.36729 0.12038 0.48255
0.52907 0.20361 0.52355
0.47505 0.39437 0.44288
0.47861 0.35623 0.46076
0.61366 0.60551 0.30463
0.50601 0.34611 0.5399
0.53894 0.45822 0.48421
0.55096 0.44511 0.47097
0.53235 0.46128 0.48056
0.56568 0.83431 0.51965
0.5665 0.83072 0.52576
0.66073 0.6779 0.56437
0.59898 0.78007 0.53391
0.6032 0.77117 0.54086
0.28493 0.60641 0.55134
0.49828 0.76906 0.49778
0.47687 0.27413 0.45032
0.54365 0.42708 0.55083
0.46059 0.1483 0.3849
0.4573 0.13578 0.38052
0.72044 0.6065 0.46781
0.71424 0.60604 0.44896
0.27457 0.60099 0.45945
0.45352 0.39541 0.45822
0.47125 0.35122 0.46877
0.27366 0.60527 0.50274
0.49356 0.15932 0.43217
0.58848 0.6025 0.30016
0.70215 0.63196 0.4729
0.57557 0.82177 0.48526
0.63401 0.73356 0.47806
0.60548 0.77623 0.48055
0.62787 0.74396 0.48169
0.4572 0.16527 0.46108
0.36472 0.60473 0.32625
0.48132 0.14816 0.37928
0.47426 0.12413 0.37108
0.51344 0.3999 0.56312
0.51473 0.37231 0.54984
0.55572 0.15932 0.4404
0.47126 0.60056 0.27181
0.50137 0.53165 0.52368
0.46974 0.20865 0.53701
0.53272 0.23816 0.55745
0.59605 0.15701 0.43068
0.7139 0.59946 0.41736
0.45724 0.15932 0.56066
0.45344 0.15932 0.6049
0.68106 0.60556 0.63832
0.34602 0.60318 0.65372
0.58269 0.15932 0.56919
0.58388 0.15932 0.57619
0.29205 0.60358 0.5652
0.53122 0.43559 0.55911
0.47468 0.86413 0.45825
0.46412 0.83742 0.44396
0.45453 0.8106 0.42902
0.43989 0.78155 0.41531
0.42316 0.74025 0.39345
0.4545 0.8251 0.44012
0.59649 0.60654 0.7027
0.42608 0.15932 0.46421
0.4185 0.15932 0.5127
0.42354 0.15932 0.48764
0.41813 0.15932 0.52608
0.40497 0.15932 0.54567
0.49224 0.41137 0.56681
0.36976 0.12604 0.51781
0.3818 0.14446 0.53389
0.45323 0.28054 0.50185
0.49685 0.33916 0.53695
0.49538 0.22687 0.437
0.42995 0.81359 0.45689
0.37353 0.70145 0.40636
0.41854 0.7904 0.44599
0.34748 0.65044 0.38406
0.49761 0.5977 0.27292
0.43852 0.42695 0.47288
0.49273 0.2158 0.55584
0.54988 0.1664 0.52577
0.48549 0.55127 0.46981
0.53895 0.77052 0.39584
0.56536 0.68052 0.34133
0.51681 0.84249 0.43916
0.5385 0.78192 0.40352
0.44265 0.16039 0.46896
0.51573 0.51988 0.50581
0.5021 0.81516 0.49816
0.49737 0.68157 0.49907
0.71142 0.59638 0.58296
0.44085 0.44472 0.4948
0.44761 0.44995 0.49969
0.54222 0.85092 0.46083
0.53855 0.86295 0.4684
0.58905 0.769 0.43109
0.57623 0.78524 0.43345
0.53395 0.86871 0.46918
0.43655 0.15932 0.44684
0.40934 0.15932 0.50757
0.40794 0.15932 0.55151
0.4199 0.15932 0.50341
0.5853 0.60443 0.70281
0.53702 0.36058 0.52895
0.30771 0.63522 0.44444
0.3389 0.69189 0.47273
0.2866 0.60616 0.449
0.37012 0.7382 0.47451
0.34272 0.68458 0.43984
0.40045 0.78483 0.48042
0.31533 0.64934 0.45206
0.29408 0.60383 0.41517
0.35266 0.70212 0.44754
0.37082 0.73075 0.45286
0.2966 0.60964 0.42055
0.30561 0.64349 0.47338
0.31418 0.63994 0.43234
0.32586 0.67173 0.46994
0.34534 0.70235 0.47542
0.30778 0.64166 0.46062
0.36285 0.7212 0.45821
0.31268 0.64336 0.44667
0.28921 0.60673 0.44075
0.3624 0.72452 0.46838
0.33338 0.67048 0.43867
0.29194 0.60593 0.42851
0.39333 0.76834 0.46485
0.39158 0.77078 0.47762
0.32395 0.66082 0.44922
0.49251 0.59939 0.71741
0.44362 0.1662 0.50636
0.47839 0.30314 0.52563
0.496 0.27363 0.44491
0.48916 0.49569 0.48722
0.5574 0.16215 0.52562
0.53119 0.37245 0.54206
0.47577 0.18587 0.47699
0.48085 0.37693 0.55082
0.28209 0.60394 0.47532
0.58022 0.60625 0.29306
0.5908 0.60519 0.29096
0.45297 0.2459 0.54721
0.48693 0.17901 0.53479
0.48518 0.22766 0.56153
0.50817 0.41159 0.56681
0.57014 0.13782 0.39542
0.56745 0.13111 0.39073
0.56846 0.12305 0.38753
0.54245 0.44019 0.54949
0.45504 0.59756 0.28594
0.59962 0.69262 0.62973
0.58389 0.75146 0.59046
0.60476 0.69933 0.61832
0.64357 0.65506 0.62089
0.65338 0.61873 0.64504
0.63089 0.64318 0.64468
0.65932 0.603 0.65381
0.59338 0.73217 0.59901
0.6063 0.68183 0.63314
0.59687 0.7219 0.60511
0.63057 0.62214 0.66466
0.58352 0.76892 0.57451
0.63567 0.64727 0.63608
0.6565 0.63272 0.62884
0.66665 0.62144 0.62924
0.6393 0.64953 0.63034
0.62321 0.6389 0.65636
0.56316 0.7909 0.57434
0.62108 0.67311 0.62651
0.57304 0.78542 0.56956
0.6213 0.64847 0.64932
0.67806 0.59736 0.62871
0.52125 0.31071 0.52599
0.49334 0.15932 0.4115
0.56942 0.15932 0.50146
0.5888 0.15932 0.45323
0.64359 0.60443 0.66511
0.43936 0.59595 0.28348
0.45693 0.12211 0.62513
0.46028 0.12593 0.62442
0.68267 0.59911 0.38134
0.50506 0.28132 0.54552
0.5559 0.82433 0.55034
0.63492 0.6792 0.60698
0.60922 0.72475 0.59009
0.56778 0.80912 0.55267
0.62815 0.69116 0.60256
0.53243 0.16559 0.45255
0.48645 0.13137 0.62826
0.48955 0.14082 0.62442
0.55903 0.16179 0.47667
0.51051 0.19598 0.46824
0.6209 0.1495 0.50893
0.61848 0.15546 0.49073
0.33733 0.62975 0.62545
0.41272 0.76488 0.57453
0.39114 0.7271 0.58826
0.39346 0.73522 0.58299
0.47017 0.86656 0.53694
0.72513 0.60018 0.45873
0.52037 0.28137 0.45929
0.32067 0.66667 0.49606
0.39038 0.77213 0.51375
0.4001 0.78685 0.49954
0.43266 0.83611 0.50855
0.31384 0.65634 0.51965
0.41656 0.81174 0.49853
0.30529 0.6434 0.49769
0.35411 0.71727 0.50931
0.29716 0.6311 0.50063
0.2958 0.62904 0.48598
0.4076 0.79819 0.51184
0.30425 0.64183 0.50445
0.32486 0.67302 0.5207
0.33139 0.6829 0.5099
0.31482 0.65783 0.49312
0.32816 0.67801 0.50822
0.30607 0.64458 0.48101
0.34531 0.70395 0.5178
0.39706 0.78224 0.50138
0.30223 0.63878 0.51435
0.31517 0.65835 0.48172
0.37961 0.75585 0.50606
0.28186 0.60795 0.47865
0.41931 0.12623 0.60364
0.42329 0.15726 0.58981
0.47466 0.20348 0.52676
0.57025 0.13012 0.60812
0.56452 0.12295 0.61479
0.48105 0.13383 0.37334
0.47738 0.20395 0.46897
0.44176 0.22411 0.52076
0.5299 0.21861 0.54992
0.43626 0.41811 0.47977
0.69202 0.60094 0.6017
0.69938 0.60225 0.61087
0.48231 0.44645 0.44582
0.48632 0.45018 0.44974
0.49929 0.17192 0.45227
0.43522 0.40968 0.51637
0.5906 0.15932 0.54459
0.59682 0.15932 0.51523
0.60626 0.15932 0.47503
0.62599 0.12678 0.46749
0.62276 0.1303 0.46092
0.6147 0.1446 0.45329
0.49047 0.15932 0.57756
0.52981 0.21773 0.45066
0.48912 0.53967 0.47211
0.72097 0.59577 0.521
0.51515 0.42631 0.4349
0.50134 0.2282 0.56346
0.5251 0.15932 0.43303
0.57584 0.59616 0.29253
0.44546 0.16676 0.51106
0.63851 0.64609 0.36566
0.56708 0.7908 0.4295
0.54491 0.83287 0.44665
0.61248 0.67607 0.36766
0.59278 0.74623 0.41354
0.58356 0.76798 0.42464
0.63562 0.63467 0.35209
0.59621 0.72866 0.40054
0.59889 0.70783 0.38375
0.58753 0.73652 0.39921
0.62665 0.62698 0.33593
0.62459 0.63955 0.34562
0.60668 0.71324 0.3966
0.65282 0.61836 0.35405
0.58201 0.73943 0.3964
0.63792 0.60262 0.32443
0.57183 0.78673 0.43045
0.65121 0.60466 0.33963
0.58268 0.74909 0.40611
0.5349 0.85595 0.45822
0.46578 0.15932 0.4286
0.5146 0.28135 0.54317
0.71749 0.59919 0.51778
0.51421 0.25132 0.43545
0.41659 0.15148 0.41357
0.40573 0.14929 0.42318
0.55869 0.24414 0.46809
0.55853 0.40247 0.52984
0.55652 0.39556 0.52707
0.3351 0.60181 0.65777
0.47788 0.59572 0.7243
0.53662 0.84763 0.54782
0.52386 0.86319 0.54331
0.58328 0.73059 0.61021
0.71479 0.60395 0.45965
0.55816 0.44237 0.47675
0.50278 0.75688 0.50017
0.37045 0.12817 0.51214
0.36918 0.12505 0.50246
0.57911 0.60663 0.70888
0.40889 0.13055 0.40926
0.41524 0.11847 0.39598
0.53119 0.31534 0.48735
0.4666 0.32357 0.50148
0.6322 0.59606 0.68361
0.43714 0.15364 0.60136
0.43998 0.14175 0.60858
0.53047 0.39612 0.44515
0.53438 0.39904 0.44588
0.50995 0.15935 0.56645
0.55403 0.25497 0.53718
0.50135 0.60013 0.4833
0.53125 0.35296 0.47016
0.47536 0.5389 0.51567
0.60416 0.12996 0.57723
0.60189 0.14346 0.57021
0.47416 0.18156 0.5214
0.57199 0.81212 0.45831
0.65208 0.67544 0.41635
0.59394 0.76283 0.43117
0.67688 0.64882 0.4241
0.66721 0.6308 0.38353
0.67161 0.63568 0.39761
0.63886 0.67979 0.3992
0.70419 0.60364 0.41169
0.59896 0.76292 0.43997
0.66295 0.66193 0.41731
0.60736 0.75743 0.44727
0.69224 0.6204 0.41314
0.62787 0.70329 0.41124
0.63748 0.70092 0.42473
0.65729 0.66668 0.41379
0.66138 0.67022 0.42555
0.6417 0.69226 0.42059
0.68495 0.62914 0.41207
0.66973 0.63332 0.39123
0.60088 0.75395 0.43144
0.60598 0.74637 0.43025
0.65058 0.66193 0.39589
0.67804 0.63654 0.40988
0.68047 0.61726 0.38861
0.67091 0.64938 0.4145
0.61958 0.72144 0.42086
0.35944 0.59953 0.33318
0.44302 0.38341 0.49765
0.44058 0.3888 0.50046
0.49789 0.54503 0.4666
0.48529 0.1815 0.53008
0.5207 0.18873 0.47346
0.54518 0.15932 0.58921
0.53887 0.15932 0.59798
0.54832 0.15932 0.57971
0.43547 0.44057 0.50454
0.44146 0.84483 0.48057
0.36827 0.72538 0.44868
0.42898 0.82458 0.47543
0.32031 0.64685 0.42709
0.33389 0.66878 0.43242
0.5334 0.30954 0.49922
0.5516 0.43111 0.45713
0.5659 0.42081 0.48783
0.50349 0.35434 0.45617
0.45847 0.28307 0.48984
0.37221 0.12804 0.52385
0.38591 0.15479 0.53303
0.5096 0.29599 0.53201
0.63939 0.60408 0.68205
0.48818 0.16849 0.44838
0.56037 0.43122 0.52905
0.4981 0.72172 0.49796
0.5436 0.21399 0.46744
0.7087 0.59633 0.58978
0.61912 0.12045 0.44096
0.61383 0.12773 0.43769
0.43956 0.26415 0.51355
0.45961 0.24799 0.44665
0.50186 0.79033 0.50208
0.55001 0.2769 0.48637
0.51742 0.28326 0.53893
0.44166 0.41902 0.46744
0.55314 0.37492 0.50252
0.55289 0.37438 0.49427
0.47303 0.26156 0.55727
0.47649 0.33736 0.47241
0.51666 0.44541 0.55585
0.51003 0.43999 0.56489
0.44838 0.42572 0.54286
0.50035 0.69902 0.49722
0.47358 0.16387 0.55394
0.52655 0.2955 0.47931
0.55139 0.44223 0.46426
0.53797 0.45666 0.47835
0.51664 0.18719 0.47104
0.49553 0.17712 0.53986
0.48686 0.37171 0.45001
0.48812 0.36654 0.4521
0.46315 0.34272 0.51146
0.50227 0.4992 0.51668
0.62865 0.12378 0.47269
0.62126 0.13708 0.46594
0.29407 0.6063 0.58445
0.60997 0.13959 0.44064
0.60974 0.13522 0.43669
0.61161 0.1509 0.45266
0.51646 0.48755 0.50309
0.62378 0.12373 0.54555
0.6131 0.14896 0.54587
0.62182 0.13773 0.5309
0.60446 0.15798 0.44602
0.60726 0.14571 0.44091
0.43319 0.42203 0.49139
0.46517 0.2693 0.54763
0.53274 0.20203 0.49311
0.51481 0.16686 0.44662
0.53833 0.35067 0.51794
0.29793 0.59914 0.39425
0.51468 0.54047 0.52659
0.43237 0.15932 0.42779
0.41499 0.15932 0.4673
0.42282 0.15932 0.4299
0.54731 0.45388 0.50111
0.45043 0.15932 0.41056
0.45041 0.38556 0.46998
0.44578 0.39683 0.46781
0.46369 0.2081 0.52974
0.36238 0.59572 0.32045
0.39228 0.12337 0.42357
0.39471 0.13701 0.43044
0.27266 0.6041 0.48316
0.69645 0.59964 0.59435
0.38578 0.60425 0.31405
0.61376 0.15932 0.50764
0.64479 0.70732 0.45127
0.64972 0.69775 0.44525
0.60528 0.77119 0.46694
0.58284 0.80669 0.47385
0.67142 0.67116 0.45833
0.70537 0.61942 0.4529
0.6373 0.72231 0.46161
0.64004 0.71809 0.46106
0.70711 0.60268 0.41666
0.71006 0.60494 0.43344
0.69342 0.62515 0.42293
0.71113 0.61513 0.46342
0.70102 0.6183 0.43383
0.60875 0.76903 0.47437
0.58647 0.80295 0.47786
0.63543 0.71941 0.44723
0.69643 0.6367 0.46367
0.60236 0.77951 0.47729
0.68337 0.6418 0.42796
0.6947 0.62634 0.43074
0.69919 0.63188 0.46168
0.66231 0.68191 0.45179
0.71973 0.60273 0.46386
0.51732 0.60427 0.71816
0.46519 0.39504 0.55178
0.47314 0.39655 0.55715
0.51162 0.43938 0.43471
0.44673 0.15932 0.45846
0.48779 0.34016 0.46455
0.50588 0.18652 0.46699
0.58861 0.60653 0.29538
0.55749 0.24639 0.53359
0.47729 0.59584 0.27921
0.55014 0.17033 0.50393
0.59442 0.12998 0.58776
0.58215 0.12811 0.6011
0.60007 0.1258 0.5845
0.49822 0.49098 0.5167
0.46157 0.43667 0.44505
0.4455 0.59647 0.71918
0.4951 0.45493 0.54595
0.54315 0.22881 0.4531
0.56564 0.14936 0.60176
0.56738 0.59601 0.71486
0.54714 0.37497 0.47533
0.55737 0.39578 0.47421
0.27876 0.6065 0.49151
0.70651 0.59799 0.40308
0.61293 0.15642 0.53479
0.62807 0.13148 0.51738
0.5147 0.49472 0.49206
0.49736 0.80234 0.4991
0.39226 0.12208 0.57744
0.38618 0.11909 0.56934
0.55927 0.22092 0.50919
0.43716 0.15932 0.56185
0.47612 0.35174 0.46454
0.46951 0.36497 0.53829
0.47263 0.34925 0.53134
0.52406 0.47172 0.50385
0.70228 0.60425 0.6041
0.43792 0.42128 0.52608
0.62984 0.59593 0.32026
0.60188 0.59792 0.30694
0.53421 0.15932 0.59376
0.54232 0.15932 0.58243
0.53891 0.15932 0.58598
0.47314 0.29487 0.47972
0.68896 0.60239 0.39271
0.39949 0.60326 0.30675
0.50691 0.5138 0.4847
0.58807 0.1192 0.39971
0.60379 0.12562 0.41911
0.53511 0.1261 0.62559
0.51867 0.13926 0.62446
0.54049 0.12003 0.62669
0.38718 0.60633 0.69414
0.45152 0.22548 0.53988
0.44286 0.8383 0.5328
0.4544 0.86272 0.52052
0.39013 0.75511 0.55144
0.42737 0.81715 0.53395
0.35719 0.70385 0.56215
0.61888 0.74027 0.55547
0.54178 0.86632 0.52238
0.57983 0.15932 0.49788
0.38559 0.76489 0.51495
0.34993 0.71094 0.51473
0.31485 0.65787 0.49999
0.32178 0.66834 0.48609
0.34402 0.702 0.49692
0.29183 0.62304 0.52541
0.35545 0.71929 0.49262
0.33925 0.69478 0.50589
0.28824 0.61761 0.50314
0.42299 0.82147 0.50856
0.33498 0.68832 0.51143
0.34331 0.70093 0.49148
0.31329 0.65551 0.51459
0.29813 0.63258 0.49538
0.31731 0.66159 0.51767
0.55873 0.3894 0.48855
0.56296 0.39819 0.48897
0.39403 0.60603 0.307
0.47263 0.19516 0.48059
0.43426 0.23485 0.49267
0.49932 0.45495 0.45408
0.49014 0.50401 0.48641
0.48238 0.30997 0.5284
0.54492 0.60172 0.71283
0.44956 0.79838 0.57743
0.39489 0.67352 0.64117
0.43729 0.78084 0.58374
0.46027 0.83082 0.55886
0.56648 0.42573 0.48999
0.51854 0.30546 0.52787
0.55111 0.2129 0.48619
0.49695 0.44727 0.44414
0.28873 0.59719 0.41263
0.48432 0.34641 0.5374
0.62201 0.12913 0.54369
0.63299 0.11848 0.51942
0.62127 0.13308 0.54027
0.45272 0.15932 0.41885
0.44665 0.15932 0.43417
0.4615 0.15932 0.42489
0.43475 0.24741 0.51329
0.53307 0.55846 0.50563
0.40626 0.15932 0.44136
0.56033 0.15932 0.45654
0.70717 0.60625 0.5906
0.48629 0.3565 0.45729
0.47986 0.39301 0.44191
0.4481 0.21185 0.50181
0.47795 0.31878 0.47481
0.46076 0.70337 0.65003
0.45717 0.60771 0.71452
0.45558 0.6697 0.67169
0.46335 0.61719 0.70969
0.44626 0.63671 0.69176
0.47568 0.6768 0.67221
0.46783 0.7507 0.61954
0.48307 0.826 0.57209
0.46345 0.66708 0.67558
0.44011 0.6265 0.6971
0.46018 0.64338 0.69093
0.46537 0.72149 0.63886
0.46919 0.74088 0.62662
0.47511 0.717 0.64455
0.47804 0.77121 0.60824
0.47222 0.71987 0.64181
0.44682 0.65377 0.68024
0.42569 0.61427 0.7016
0.45733 0.67831 0.66626
0.47896 0.70892 0.65111
0.42335 0.63215 0.68874
0.45678 0.65641 0.6811
0.48088 0.82064 0.57518
0.50574 0.30471 0.46696
0.32582 0.59927 0.35185
0.47203 0.41601 0.43901
0.50696 0.15932 0.42559
0.53747 0.3541 0.52253
0.54808 0.38886 0.53563
0.52958 0.59707 0.27341
0.48918 0.4334 0.56626
0.55474 0.21683 0.48456
0.56659 0.24241 0.49764
0.55358 0.43925 0.53967
0.40037 0.60113 0.29397
0.54611 0.42219 0.45163
0.41911 0.80128 0.45938
0.35051 0.66419 0.39698
0.35366 0.68786 0.42282
0.40103 0.77188 0.45184
0.30757 0.60525 0.39343
0.34126 0.67591 0.4285
0.33449 0.64325 0.39704
0.38354 0.73264 0.43025
0.34888 0.67156 0.40955
0.33142 0.63404 0.39019
0.37258 0.73107 0.44717
0.32563 0.6539 0.42648
0.30731 0.61656 0.40884
0.31301 0.61808 0.40098
0.32778 0.63446 0.39705
0.34698 0.65787 0.39475
0.39593 0.76393 0.45016
0.4353 0.82969 0.4689
0.34069 0.66884 0.42014
0.33751 0.66337 0.41842
0.38519 0.73065 0.42476
0.40755 0.77693 0.44722
0.32467 0.63817 0.40734
0.52616 0.12198 0.62971
0.51922 0.15067 0.61952
0.55867 0.22164 0.48684
0.46248 0.34403 0.48874
0.55477 0.38498 0.51851
0.5607 0.40025 0.52307
0.52973 0.15932 0.57403
0.53372 0.15932 0.56898
0.48444 0.48059 0.49356
0.51321 0.33189 0.46876
0.42146 0.15932 0.57285
0.41996 0.15932 0.54632
0.66664 0.60584 0.35582
0.47174 0.19686 0.51786
0.66347 0.60141 0.34073
0.68409 0.59795 0.61737
0.44595 0.1601 0.53762
0.39775 0.59641 0.29838
0.6814 0.66355 0.51575
0.64404 0.72006 0.50241
0.69275 0.64636 0.48981
0.70095 0.63396 0.51818
0.63809 0.72906 0.50351
0.60372 0.78106 0.4905
0.68196 0.66269 0.48836
0.65905 0.69735 0.49109
0.7166 0.61029 0.51656
0.6862 0.65628 0.48866
0.65927 0.69703 0.50277
0.68715 0.65484 0.51655
0.60762 0.77516 0.5002
0.69006 0.65043 0.49146
0.70737 0.62425 0.48378
0.69823 0.63808 0.4754
0.61208 0.76842 0.49657
0.69047 0.64982 0.50848
0.67053 0.67999 0.48845
0.61787 0.75966 0.4933
0.64467 0.71911 0.48678
0.69581 0.64175 0.49318
0.55923 0.42322 0.46897
0.44033 0.60148 0.29116
0.41344 0.6017 0.28697
0.45612 0.26536 0.54258
0.49246 0.43005 0.43319
0.50204 0.25623 0.56494
0.61551 0.60456 0.69542
0.52044 0.41818 0.56369
0.51027 0.60024 0.28277
0.44361 0.40601 0.53595
0.54063 0.17661 0.50091
0.45534 0.35684 0.49299
0.44663 0.37992 0.48511
0.49574 0.81483 0.5814
0.49326 0.78589 0.60053
0.49099 0.81158 0.58355
0.49507 0.85915 0.55211
0.48326 0.72282 0.64222
0.55447 0.83193 0.45534
0.65466 0.64402 0.37988
0.61294 0.72394 0.41286
0.55914 0.81996 0.44881
0.5705 0.79908 0.44066
0.52383 0.76707 0.38943
0.53524 0.68939 0.33933
0.53667 0.60914 0.28481
0.53195 0.71619 0.35679
0.55316 0.66916 0.33029
0.52821 0.69462 0.34103
0.56207 0.61488 0.29554
0.54098 0.7444 0.37851
0.5636 0.64765 0.31837
0.52365 0.78216 0.39971
0.56565 0.64291 0.31567
0.53669 0.74004 0.37438
0.53812 0.70664 0.3519
0.51273 0.81029 0.41603
0.54334 0.67416 0.33108
0.53807 0.6981 0.34605
0.53471 0.62551 0.29548
0.50807 0.85115 0.44274
0.56939 0.63338 0.31016
0.53307 0.67331 0.32775
0.56595 0.65746 0.32571
0.52701 0.6858 0.33467
0.55589 0.61475 0.2938
0.53072 0.74009 0.37281
0.53803 0.7261 0.3652
0.52061 0.57677 0.51727
0.50567 0.60107 0.50784
0.50761 0.25657 0.43518
0.50741 0.56308 0.5326
0.28742 0.60032 0.54593
0.47788 0.41371 0.43676
0.50315 0.49502 0.48355
0.46251 0.42365 0.55549
0.48496 0.4477 0.55322
0.59794 0.77333 0.45196
0.56624 0.82736 0.46848
0.66581 0.66827 0.43064
0.58255 0.79752 0.45728
0.5132 0.52956 0.48212
0.36157 0.60388 0.33032
0.29366 0.59713 0.57504
0.5367 0.36981 0.53517
0.53599 0.38233 0.5439
0.5542 0.26658 0.52685
0.71627 0.59969 0.53247
0.55104 0.44848 0.51932
0.4384 0.23744 0.52522
0.49706 0.52135 0.4835
0.50185 0.3189 0.4666
0.46505 0.44128 0.55327
0.41541 0.59801 0.71267
0.61559 0.76099 0.47938
0.56999 0.83085 0.4876
0.54688 0.8662 0.49161
0.60824 0.77351 0.48392
0.55234 0.85822 0.49163
0.55051 0.42523 0.54397
0.48475 0.80535 0.41333
0.48833 0.8127 0.4174
0.48835 0.84198 0.43742
0.47508 0.68087 0.33074
0.47947 0.71247 0.35118
0.46214 0.38197 0.4582
0.47026 0.35791 0.46548
0.49303 0.14737 0.37824
0.49117 0.15322 0.38062
0.46325 0.2053 0.52045
0.42402 0.60095 0.70444
0.46886 0.37863 0.45468
0.48388 0.59191 0.50436
0.5147 0.75468 0.37884
0.50452 0.81585 0.41927
0.511 0.77959 0.3953
0.52313 0.6596 0.316
0.51356 0.73565 0.36626
0.5167 0.50429 0.49945
0.43426 0.43946 0.50951
0.45514 0.45548 0.50737
0.46344 0.1778 0.48643
0.54574 0.24339 0.45141
0.44577 0.78553 0.41496
0.38434 0.64189 0.34079
0.43861 0.76132 0.4006
0.41833 0.6714 0.34369
0.43065 0.74569 0.39327
0.43197 0.67169 0.33603
0.44313 0.73431 0.37738
0.42555 0.69605 0.35833
0.40476 0.68321 0.36054
0.4366 0.69717 0.35281
0.41286 0.62887 0.31439
0.41766 0.67918 0.35001
0.41434 0.63308 0.31675
0.41059 0.60843 0.3001
0.45579 0.77205 0.39887
0.37443 0.60148 0.31567
0.43776 0.73305 0.37952
0.39216 0.65155 0.34365
0.39438 0.67093 0.35716
0.42572 0.6684 0.33713
0.40413 0.62583 0.31711
0.43002 0.69607 0.35576
0.40729 0.67514 0.35292
0.39661 0.64786 0.33826
0.45417 0.78275 0.40798
0.53226 0.33838 0.48268
0.49093 0.22029 0.4411
0.49448 0.46004 0.53925
0.51643 0.60194 0.72814
0.54454 0.20674 0.50228
0.4943 0.30196 0.46695
0.5274 0.38517 0.5509
0.5248 0.37559 0.54739
0.49989 0.56082 0.4666
0.72789 0.59919 0.47498
0.46637 0.22562 0.55283
0.47825 0.41656 0.56334
0.41319 0.59731 0.29771
0.62957 0.12811 0.50233
0.62442 0.1408 0.48694
0.43899 0.16314 0.50308
0.33735 0.67677 0.56006
0.30281 0.63026 0.54994
0.30565 0.63301 0.55352
0.37971 0.74763 0.53719
0.28318 0.60937 0.53001
0.3678 0.7236 0.55411
0.28535 0.60199 0.55697
0.39708 0.77301 0.53721
0.34995 0.70907 0.52461
0.36033 0.71999 0.53546
0.32847 0.66349 0.56085
0.39235 0.76978 0.52781
0.38641 0.7575 0.53701
0.3399 0.68672 0.54419
0.40764 0.79016 0.53284
0.3305 0.6726 0.54514
0.34131 0.69362 0.53184
0.35309 0.69966 0.56034
0.38849 0.76373 0.52885
0.31531 0.65225 0.54045
0.31089 0.64309 0.54733
0.39687 0.77734 0.52537
0.49708 0.31452 0.4666
0.44633 0.27152 0.47934
0.48614 0.5196 0.5094
0.45467 0.27173 0.53526
0.4916 0.22644 0.56281
0.54712 0.25629 0.45532
0.44327 0.61718 0.29568
0.44589 0.72303 0.36741
0.47543 0.83037 0.43294
0.47654 0.75162 0.37876
0.48074 0.83675 0.43589
0.44213 0.65284 0.32038
0.47056 0.66398 0.32039
0.47822 0.84284 0.44072
0.44941 0.6984 0.34961
0.45125 0.60806 0.2873
0.44487 0.64383 0.31348
0.46866 0.63647 0.30207
0.46047 0.69326 0.34313
0.46855 0.70504 0.34902
0.47663 0.82033 0.42575
0.43997 0.6406 0.31259
0.45268 0.67607 0.33345
0.45668 0.61866 0.2931
0.43155 0.6522 0.32278
0.43611 0.60991 0.29262
0.47024 0.74552 0.37627
0.46039 0.73611 0.37247
0.45883 0.71956 0.36156
0.42775 0.61281 0.29684
0.47095 0.6324 0.29868
0.44598 0.66864 0.33016
0.47499 0.77827 0.39741
0.52032 0.26614 0.44266
0.52578 0.1724 0.53939
0.50014 0.1404 0.62459
0.51238 0.14713 0.62186
0.53292 0.59557 0.72083
0.50229 0.38589 0.4419
0.49249 0.39031 0.4399
0.47719 0.33202 0.47512
0.27716 0.6063 0.46386
0.50203 0.16867 0.44735
0.50264 0.6865 0.5009
0.41697 0.13641 0.40455
0.441 0.25554 0.52817
0.60255 0.60152 0.29571
0.47428 0.60096 0.28287
0.39405 0.7777 0.49249
0.44255 0.85107 0.49864
0.42386 0.82279 0.49633
0.41922 0.81577 0.49085
0.44508 0.8549 0.50317
0.42693 0.15932 0.51343
0.3984 0.6047 0.69363
0.72801 0.59948 0.48972
0.28534 0.60006 0.46173
0.49593 0.61345 0.71451
0.51218 0.63738 0.69869
0.49961 0.72867 0.63835
0.50559 0.60228 0.72189
0.49079 0.73403 0.63481
0.50512 0.80949 0.58493
0.51897 0.71503 0.64737
0.50674 0.65172 0.68921
0.49893 0.66437 0.68085
0.4932 0.73985 0.63096
0.50675 0.66803 0.67844
0.48139 0.67986 0.67061
0.50054 0.76475 0.61451
0.48952 0.67022 0.67698
0.48362 0.6407 0.6965
0.47617 0.64062 0.69655
0.50311 0.83705 0.56672
0.51957 0.61977 0.71033
0.51304 0.71872 0.64493
0.51844 0.21693 0.44597
0.61444 0.15348 0.46622
0.59166 0.60019 0.28949
0.53627 0.17949 0.50093
0.52517 0.46504 0.47868
0.46534 0.16805 0.54112
0.5167 0.51039 0.50142
0.51831 0.15932 0.58541
0.58071 0.71964 0.37995
0.58806 0.63678 0.32095
0.57791 0.67123 0.34138
0.54502 0.77368 0.40059
0.61011 0.64635 0.34099
0.62052 0.60439 0.31497
0.62741 0.61708 0.32864
0.58045 0.62659 0.30878
0.56284 0.7446 0.38868
0.56172 0.76487 0.40351
0.58539 0.7019 0.36911
0.57071 0.74875 0.3964
0.5592 0.73268 0.37748
0.59693 0.66869 0.35043
0.558 0.72627 0.3719
0.54753 0.77841 0.40565
0.58815 0.61239 0.30239
0.63296 0.60278 0.32093
0.58193 0.6524 0.32934
0.55669 0.7427 0.38368
0.56622 0.71419 0.36743
0.59073 0.64874 0.33162
0.57053 0.6693 0.33566
0.61155 0.63828 0.33566
0.64726 0.60177 0.67541
0.55796 0.25695 0.471
0.42637 0.14294 0.39984
0.43735 0.14163 0.39288
0.5124 0.23974 0.56531
0.52781 0.25233 0.43995
0.30594 0.61152 0.59546
0.44667 0.84022 0.53687
0.3208 0.62238 0.60682
0.33472 0.63306 0.61682
0.34901 0.67063 0.5919
0.31348 0.60804 0.6131
0.43338 0.81524 0.54687
0.38377 0.73332 0.56924
0.36514 0.71311 0.56368
0.42913 0.81295 0.54255
0.38494 0.73868 0.56418
0.33024 0.62738 0.61658
0.32679 0.61564 0.62611
0.42877 0.80706 0.5497
0.34283 0.6605 0.59458
0.31008 0.60526 0.61088
0.35067 0.67665 0.58682
0.32302 0.6324 0.59743
0.38113 0.72699 0.57303
0.34343 0.64905 0.61077
0.34339 0.66834 0.58519
0.33515 0.64473 0.60214
0.31525 0.61869 0.60209
0.42412 0.79726 0.5546
0.33635 0.64974 0.59759
0.39838 0.76344 0.55473
0.57387 0.60509 0.70673
0.70561 0.59615 0.41715
0.54951 0.38984 0.46598
0.55176 0.38577 0.47356
0.35278 0.59654 0.67225
0.56269 0.13684 0.60934
0.41133 0.15932 0.56989
0.42276 0.15932 0.55673
0.51017 0.55789 0.53186
0.5329 0.20726 0.53125
0.5791 0.70682 0.36924
0.60802 0.65686 0.3478
0.60093 0.67478 0.35739
0.56989 0.74047 0.3896
0.5485 0.76384 0.39509
0.58775 0.66896 0.34534
0.58558 0.64486 0.32569
0.58076 0.70032 0.36523
0.60438 0.63762 0.33101
0.5396 0.79949 0.41716
0.62491 0.60797 0.32024
0.55563 0.76816 0.40251
0.56381 0.69532 0.35164
0.59905 0.6074 0.30488
0.57721 0.69576 0.35971
0.59911 0.61693 0.31219
0.60275 0.65356 0.34224
0.56516 0.70846 0.36244
0.61053 0.61237 0.3153
0.59432 0.68966 0.36493
0.58144 0.64165 0.32085
0.61744 0.60144 0.31095
0.5693 0.72533 0.3777
0.4973 0.65049 0.5007
0.64865 0.60422 0.32726
0.48486 0.42662 0.56511
0.5556 0.4301 0.46269
0.70187 0.60596 0.39881
0.52513 0.30268 0.47789
0.44356 0.15932 0.55408
0.5116 0.57447 0.47372
0.56133 0.84519 0.50048
0.64644 0.71643 0.51646
0.55196 0.85937 0.49882
0.56908 0.83347 0.50901
0.49792 0.29898 0.5334
0.53664 0.20391 0.48962
0.4754 0.24934 0.43801
0.5223 0.24236 0.43704
0.67274 0.59881 0.63506
0.50633 0.46563 0.53154
0.45435 0.36198 0.51233
0.45134 0.37208 0.51876
0.32636 0.5965 0.64575
0.37587 0.61043 0.32167
0.44615 0.76958 0.40256
0.40257 0.65975 0.34389
0.42162 0.70462 0.36715
0.40616 0.64405 0.32984
0.44732 0.7368 0.37686
0.41219 0.66248 0.34043
0.39783 0.66861 0.3534
0.45413 0.79792 0.41959
0.40112 0.64932 0.33677
0.40878 0.65531 0.33692
0.45328 0.76383 0.39405
0.45836 0.80166 0.42
0.40737 0.61325 0.30563
0.38996 0.63312 0.33085
0.44945 0.79293 0.41848
0.47429 0.83734 0.43803
0.46893 0.82301 0.43019
0.4749 0.27101 0.55202
0.51059 0.34724 0.4608
0.28273 0.59602 0.5585
0.67511 0.60605 0.63627
0.50693 0.48874 0.51528
0.51617 0.15317 0.38071
0.43346 0.24675 0.50305
0.53117 0.27827 0.54007
0.61887 0.15176 0.51991
0.65465 0.59927 0.33232
0.51363 0.22065 0.55791
0.5622 0.42169 0.47413
0.48072 0.28863 0.47256
0.51754 0.32859 0.47156
0.51559 0.34863 0.46149
0.53894 0.42964 0.44534
0.51147 0.20908 0.45312
0.49734 0.43998 0.56528
0.54931 0.36838 0.50985
0.49216 0.56795 0.46752
0.72123 0.60649 0.49535
0.51362 0.39602 0.43875
0.51158 0.37245 0.44925
0.53413 0.60179 0.28427
0.52211 0.20408 0.46822
0.48272 0.47674 0.50401
0.52239 0.53706 0.51677
0.28103 0.59694 0.52643
0.50181 0.15932 0.60941
0.50816 0.15932 0.60835
0.44663 0.15358 0.39313
0.43185 0.13463 0.39278
0.46873 0.24706 0.44126
0.50195 0.71797 0.49802
0.44834 0.25792 0.46078
0.47932 0.45127 0.45342
0.40801 0.7835 0.54488
0.34413 0.68252 0.56774
0.3935 0.76226 0.54784
0.48846 0.32243 0.46851
0.32699 0.60634 0.35549
0.43484 0.25201 0.51162
0.38912 0.62058 0.67823
0.4115 0.63291 0.68175
0.43259 0.69659 0.64533
0.42265 0.72533 0.61764
0.42327 0.66225 0.66615
0.41269 0.65334 0.66684
0.40907 0.66189 0.65822
0.4364 0.74108 0.61356
0.41281 0.67347 0.65154
0.372 0.60371 0.68122
0.4366 0.7244 0.62641
0.42882 0.73801 0.61153
0.38719 0.64456 0.65882
0.43501 0.75207 0.60437
0.3991 0.65858 0.65499
0.44458 0.76987 0.59631
0.41611 0.68093 0.64775
0.42602 0.69997 0.63894
0.41628 0.69123 0.63999
0.43021 0.73382 0.61553
0.41261 0.64361 0.67422
0.42998 0.67076 0.66353
0.45169 0.76266 0.60592
0.4204 0.66718 0.66073
0.51095 0.31949 0.53165
0.53361 0.26917 0.54843
0.69365 0.60308 0.37974
0.67431 0.60371 0.35247
0.49126 0.82296 0.57603
0.48787 0.78496 0.60115
0.48905 0.79923 0.59172
0.49418 0.80759 0.58619
0.4922 0.76879 0.61184
0.49017 0.46414 0.4674
0.27688 0.60663 0.52017
0.52228 0.42785 0.43681
0.43678 0.40184 0.51644
0.456 0.36176 0.51807
0.46296 0.28513 0.49548
0.49967 0.60298 0.27212
0.53034 0.22691 0.55524
0.39813 0.74284 0.41945
0.43044 0.80136 0.44185
0.38416 0.71841 0.41059
0.44592 0.82972 0.45288
0.28382 0.60638 0.45308
0.49996 0.39421 0.56187
0.48907 0.56381 0.53165
0.4488 0.14126 0.6139
0.50743 0.59697 0.71892
0.38625 0.15145 0.46049
0.52858 0.16501 0.4493
0.38108 0.59948 0.68234
0.5491 0.16994 0.48728
0.52345 0.46341 0.47398
0.45935 0.16763 0.53603
0.48774 0.3114 0.4687
0.55778 0.60391 0.71009
0.47001 0.60666 0.27773
0.40869 0.14058 0.41522
0.4171 0.13791 0.59472
0.42044 0.15211 0.58991
0.47495 0.12631 0.62819
0.30188 0.60624 0.40191
0.28282 0.60156 0.48587
0.47338 0.28802 0.47938
0.44294 0.26597 0.47821
0.45488 0.80916 0.57227
0.43425 0.76204 0.59632
0.43122 0.75761 0.59795
0.46054 0.82075 0.56669
0.55846 0.44522 0.5079
0.4901 0.51729 0.51357
0.53981 0.17099 0.47067
0.54539 0.15932 0.40775
0.53368 0.2863 0.50186
0.65667 0.60654 0.65981
0.6218 0.14727 0.50186
0.62015 0.15135 0.49652
0.45344 0.45299 0.51348
0.36954 0.60333 0.32401
0.5182 0.58021 0.48407
0.62384 0.59725 0.31904
0.69609 0.60596 0.60027
0.46743 0.17455 0.5293
0.5167 0.59419 0.50129
0.30836 0.60639 0.38315
0.5487 0.37107 0.48318
0.5041 0.87919 0.5025
0.6041 0.15932 0.5186
0.61022 0.15932 0.5038
0.59284 0.12834 0.40972
0.58982 0.14152 0.41427
0.59689 0.13527 0.58225
0.48287 0.79438 0.59368
0.46896 0.67576 0.67112
0.43406 0.66662 0.66802
0.44998 0.66812 0.67126
0.47205 0.74557 0.62418
0.43708 0.60268 0.71258
0.47573 0.78337 0.5993
0.45668 0.61236 0.71121
0.47293 0.68653 0.66481
0.44891 0.70935 0.64276
0.47067 0.73429 0.63153
0.44362 0.64194 0.68747
0.46803 0.61922 0.70956
0.46171 0.68853 0.66044
0.46622 0.76549 0.60899
0.46469 0.71606 0.6424
0.4636 0.67176 0.67242
0.451 0.64998 0.68395
0.44559 0.65905 0.67629
0.46465 0.75796 0.61372
0.4689 0.72592 0.63678
0.51854 0.17697 0.46441
0.44519 0.39283 0.47244
0.46106 0.35816 0.47634
0.48158 0.30055 0.47206
0.72761 0.60364 0.51629
0.47443 0.82946 0.56741
0.4647 0.78168 0.5975
0.48055 0.85569 0.5511
0.47505 0.81648 0.57646
0.47424 0.606 0.27468
0.5334 0.32598 0.49656
0.48388 0.60578 0.72567
0.43599 0.4229 0.51922
0.49521 0.3303 0.5333
0.45525 0.25899 0.45427
0.34327 0.61633 0.35606
0.39355 0.6983 0.3824
0.36807 0.63446 0.34821
0.42956 0.7797 0.42249
0.38815 0.66249 0.35434
0.34741 0.6257 0.36068
0.36884 0.64315 0.35556
0.40037 0.69432 0.37187
0.35234 0.641 0.37005
0.43564 0.79847 0.43394
0.36247 0.6721 0.38899
0.40303 0.70246 0.37681
0.32475 0.60109 0.36034
0.43451 0.77777 0.41573
0.40965 0.71757 0.38432
0.39718 0.70983 0.38955
0.41486 0.7353 0.39568
0.37662 0.68042 0.38261
0.39105 0.6876 0.37491
0.39099 0.67645 0.36453
0.38257 0.68102 0.37723
0.37454 0.69195 0.39548
0.37244 0.64952 0.35792
0.33237 0.60955 0.36063
0.40357 0.71358 0.38666
0.36923 0.73963 0.5185
0.34429 0.70155 0.52267
0.45579 0.86807 0.51356
0.56609 0.25071 0.49766
0.42797 0.59671 0.28521
0.48162 0.57854 0.51757
0.63466 0.59718 0.67463
0.39526 0.15132 0.5589
0.39704 0.1589 0.55583
0.44168 0.42619 0.46741
0.32909 0.60037 0.65176
0.37969 0.60476 0.30753
0.52802 0.20355 0.47564
0.61587 0.15932 0.51424
0.56632 0.15382 0.40072
0.56104 0.14064 0.39149
0.4879 0.55739 0.53134
0.59498 0.75282 0.57811
0.53602 0.85709 0.53959
0.55805 0.82817 0.5446
0.46949 0.20298 0.48202
0.50082 0.42509 0.43319
0.30294 0.60404 0.38655
0.53229 0.44879 0.45641
0.52251 0.454 0.45855
0.49025 0.17118 0.45204
0.46908 0.1695 0.45852
0.7173 0.59973 0.47831
0.69442 0.64155 0.53146
0.54939 0.86291 0.50742
0.65577 0.69706 0.53395
0.67299 0.67327 0.53045
0.60281 0.77807 0.52469
0.62336 0.74359 0.53605
0.64379 0.71572 0.53098
0.68848 0.64414 0.54699
0.70942 0.60534 0.56792
0.58038 0.81378 0.51724
0.71234 0.61332 0.53668
0.65322 0.69822 0.54049
0.66148 0.69065 0.52898
0.63818 0.71943 0.54246
0.66113 0.68841 0.53602
0.69514 0.63862 0.53624
0.68829 0.64928 0.53459
0.69117 0.64338 0.5389
0.71723 0.60784 0.53241
0.57477 0.8212 0.51921
0.70959 0.61584 0.54047
0.70303 0.61373 0.57039
0.69439 0.63526 0.54765
0.5847 0.1322 0.40379
0.58093 0.15646 0.41395
0.58579 0.15932 0.52769
0.56869 0.15932 0.57282
0.54994 0.15932 0.60317
0.65942 0.59818 0.64878
0.53074 0.59761 0.72678
0.32558 0.59591 0.63759
0.46847 0.31429 0.48863
0.44401 0.24195 0.46391
0.54129 0.44487 0.45791
0.53425 0.45279 0.46536
0.49868 0.77873 0.49755
0.27326 0.60489 0.52959
0.7034 0.60593 0.58749
0.34918 0.66581 0.40143
0.32323 0.64299 0.41622
0.3814 0.7368 0.43947
0.37275 0.72284 0.436
0.32135 0.63759 0.41233
0.36701 0.71285 0.43273
0.33333 0.62718 0.37782
0.38903 0.73653 0.42589
0.35026 0.67807 0.41578
0.36354 0.68447 0.40122
0.36619 0.70767 0.4273
0.34439 0.68408 0.43388
0.37956 0.71598 0.41514
0.35317 0.69564 0.43394
0.39313 0.74746 0.43324
0.42187 0.80536 0.46
0.34108 0.65449 0.40049
0.33686 0.65039 0.40238
0.41493 0.78563 0.44594
0.40942 0.78401 0.45334
0.3181 0.6418 0.42353
0.36133 0.69031 0.41276
0.3726 0.71654 0.42793
0.34539 0.60422 0.33323
0.69664 0.61978 0.42124
0.67436 0.66143 0.44444
0.68701 0.6516 0.46654
0.62398 0.74231 0.46299
0.62841 0.7378 0.468
0.68255 0.65487 0.45829
0.68934 0.64522 0.45895
0.63053 0.72882 0.45297
0.62646 0.74274 0.47332
0.68043 0.66165 0.46768
0.70222 0.62076 0.44456
0.66553 0.67131 0.43675
0.64618 0.70248 0.44411
0.65549 0.69241 0.45313
0.70577 0.62389 0.4658
0.70669 0.60969 0.43298
0.56573 0.8339 0.47949
0.58861 0.7989 0.47548
0.48779 0.32483 0.53131
0.46185 0.60476 0.27538
0.5986 0.59628 0.6969
0.44613 0.38824 0.52503
0.55856 0.38689 0.50108
0.47834 0.20936 0.54373
0.46789 0.19098 0.49079
0.5154 0.1228 0.36827
0.27232 0.59869 0.49702
0.35555 0.60638 0.66805
0.62315 0.13568 0.47084
0.48798 0.4983 0.5116
0.46786 0.40837 0.44142
0.52999 0.18363 0.51487
0.47129 0.1414 0.62087
0.48082 0.12562 0.63006
0.52333 0.20253 0.52494
0.51493 0.59024 0.49245
0.49302 0.47904 0.48474
0.43319 0.43355 0.50839
0.35062 0.64634 0.62324
0.42897 0.76871 0.5872
0.43695 0.79389 0.57164
0.37859 0.65871 0.63964
0.41833 0.75323 0.59103
0.38428 0.6974 0.60917
0.37584 0.67434 0.62229
0.38522 0.66855 0.63708
0.41566 0.73194 0.60826
0.42951 0.77839 0.57869
0.4114 0.72786 0.60782
0.36802 0.6711 0.61749
0.35355 0.64135 0.63083
0.37609 0.64233 0.65245
0.39822 0.68822 0.63169
0.36757 0.68074 0.60803
0.35923 0.61546 0.66072
0.37207 0.65537 0.63625
0.34337 0.60976 0.65018
0.43988 0.79952 0.56931
0.40228 0.71356 0.61206
0.34319 0.62624 0.6346
0.34169 0.62004 0.63889
0.462 0.20388 0.50259
0.45965 0.35448 0.51788
0.43718 0.23231 0.48374
0.67996 0.60599 0.36126
0.27216 0.60307 0.49433
0.52483 0.17726 0.46878
0.71106 0.596 0.56386
0.55155 0.38109 0.47743
0.38082 0.59823 0.30613
0.54811 0.2238 0.46124
0.39747 0.15932 0.46468
0.40716 0.15932 0.45678
0.46029 0.2842 0.50053
0.53083 0.30992 0.5134
0.46745 0.37295 0.54134
0.46499 0.37924 0.5429
0.50575 0.56307 0.46696
0.46451 0.44999 0.46147
0.56498 0.24202 0.51459
0.53496 0.16445 0.54798
0.48706 0.84876 0.44241
0.48427 0.7842 0.39898
0.47863 0.72576 0.3605
0.47437 0.6733 0.32575
0.6675 0.59792 0.34612
0.44285 0.41944 0.53462
0.49336 0.28103 0.45417
0.50389 0.23296 0.43488
0.45974 0.66523 0.32414
0.47585 0.81614 0.42309
0.46693 0.75451 0.38332
0.45088 0.6159 0.29276
0.44354 0.60356 0.28629
0.45341 0.68019 0.33608
0.45905 0.75221 0.38385
0.45423 0.71201 0.35763
0.44674 0.66363 0.32653
0.47878 0.80662 0.4158
0.46788 0.7268 0.3641
0.44445 0.61295 0.29247
0.44332 0.70951 0.35884
0.4476 0.65582 0.32096
0.46588 0.60979 0.28456
0.46793 0.68665 0.33661
0.46631 0.64525 0.30872
0.46061 0.65614 0.31769
0.42665 0.61682 0.29989
0.46234 0.7024 0.34889
0.43915 0.66118 0.32689
0.43695 0.63166 0.30728
0.43108 0.63428 0.31065
0.51464 0.58572 0.48653
0.37609 0.13127 0.53327
0.38131 0.13967 0.53955
0.52208 0.44318 0.44262
0.5147 0.4432 0.44066
0.47237 0.45525 0.46337
0.47766 0.45344 0.45762
0.47972 0.84935 0.55522
0.44027 0.69992 0.6469
0.47014 0.80009 0.58636
0.48766 0.86429 0.54712
0.46982 0.81057 0.5791
0.45759 0.76849 0.60462
0.57726 0.61109 0.29701
0.52815 0.65664 0.31502
0.57503 0.61719 0.30059
0.53185 0.63393 0.30047
0.5119 0.82701 0.42725
0.55642 0.63761 0.30958
0.53385 0.76457 0.3904
0.54327 0.60556 0.28412
0.57329 0.64073 0.31623
0.56177 0.6719 0.33447
0.54985 0.70868 0.35645
0.521 0.73484 0.36662
0.52444 0.77162 0.39271
0.55159 0.63487 0.30641
0.51406 0.78618 0.39989
0.52847 0.67181 0.32548
0.54057 0.72064 0.36214
0.52869 0.76464 0.38907
0.53167 0.66554 0.32206
0.53693 0.66898 0.32582
0.69481 0.60667 0.39234
0.51469 0.41858 0.56523
0.62201 0.7117 0.41219
0.6769 0.62261 0.3895
0.68882 0.61395 0.3987
0.59327 0.76674 0.43518
0.61611 0.72605 0.42094
0.66904 0.64109 0.40031
0.59017 0.7828 0.45104
0.62174 0.70854 0.40755
0.67064 0.65677 0.42381
0.62334 0.73153 0.44072
0.57837 0.79362 0.44489
0.67736 0.62665 0.39565
0.60698 0.739 0.42226
0.62776 0.71339 0.42439
0.65885 0.64116 0.38276
0.56888 0.81839 0.4612
0.63307 0.69121 0.40425
0.64273 0.68572 0.41373
0.63905 0.70275 0.42988
0.6172 0.72845 0.426
0.49065 0.1818 0.46792
0.5431 0.16782 0.46682
0.45814 0.15932 0.56659
0.50824 0.42497 0.56681
0.49691 0.21448 0.44548
0.51936 0.47115 0.51594
0.29964 0.60288 0.58787
0.59883 0.15932 0.47218
0.57977 0.15932 0.51228
0.58134 0.15932 0.50489
0.55722 0.15932 0.57303
0.61886 0.5971 0.68397
0.48535 0.58438 0.48507
0.5367 0.42643 0.55595
0.47355 0.44849 0.4526
0.53608 0.17234 0.53051
0.52389 0.42525 0.56276
0.67821 0.60081 0.35545
0.32964 0.60567 0.64013
0.55564 0.24385 0.46287
0.42406 0.79383 0.44119
0.3958 0.73528 0.41472
0.39086 0.73022 0.41493
0.35331 0.65904 0.38594
0.48706 0.59403 0.48932
0.51681 0.15932 0.60568
0.49872 0.87216 0.49561
0.47785 0.30194 0.47491
0.53888 0.24745 0.44571
0.55182 0.4132 0.45735
0.51445 0.48876 0.50838
0.576 0.15552 0.59151
0.59075 0.15525 0.57692
0.45753 0.17429 0.48799
0.53252 0.31646 0.49229
0.44077 0.59667 0.71118
0.43337 0.24279 0.49856
0.54608 0.17 0.47854
0.57277 0.60215 0.71666
0.45126 0.44944 0.5217
0.31342 0.60367 0.36798
0.53316 0.2955 0.49468
0.46798 0.5446 0.49045
0.5249 0.45722 0.46474
0.35886 0.60469 0.67973
0.56655 0.14131 0.39498
0.53316 0.15932 0.43136
0.46519 0.14943 0.61586
0.46216 0.15732 0.61173
0.50027 0.66585 0.50278
0.4501 0.21024 0.50735
0.27861 0.60555 0.54687
0.50148 0.21006 0.54981
0.55374 0.14627 0.38992
0.54676 0.15523 0.39008
0.53225 0.29878 0.50869
0.30309 0.61525 0.58557
0.36289 0.70141 0.57526
0.38711 0.73689 0.57031
0.32339 0.62175 0.61214
0.33697 0.63987 0.61172
0.39652 0.7436 0.57773
0.33317 0.63845 0.607
0.34158 0.65607 0.59828
0.32625 0.65289 0.57594
0.37846 0.73408 0.55903
0.32963 0.63912 0.59998
0.32149 0.62804 0.60054
0.32567 0.62016 0.61819
0.33966 0.64563 0.60876
0.43643 0.82618 0.5377
0.32275 0.64026 0.58656
0.38826 0.73474 0.57513
0.34859 0.66659 0.59651
0.41804 0.79263 0.55018
0.31914 0.63363 0.58908
0.37108 0.7088 0.57968
0.4477 0.15932 0.42225
0.29058 0.60099 0.44262
0.48711 0.15932 0.5927
0.47683 0.15932 0.57324
0.52084 0.76166 0.61507
0.51829 0.78225 0.60167
0.52484 0.69522 0.65947
0.37382 0.60633 0.68641
0.50764 0.5123 0.51487
0.49962 0.83317 0.50278
0.37897 0.68497 0.38453
0.42281 0.75519 0.40632
0.33472 0.60425 0.35332
0.3552 0.64573 0.37162
0.34035 0.61007 0.35314
0.41678 0.74178 0.39982
0.41059 0.74679 0.41069
0.4358 0.78382 0.42009
0.41457 0.75845 0.4176
0.44868 0.81848 0.43961
0.36158 0.63548 0.35565
0.40816 0.75345 0.41935
0.45443 0.83707 0.45123
0.3605 0.65549 0.37544
0.33718 0.61909 0.36472
0.39002 0.72196 0.40805
0.3729 0.62556 0.33506
0.49295 0.60107 0.49671
0.49779 0.60107 0.49077
0.45284 0.42613 0.54731
0.54544 0.45384 0.51337
0.44084 0.23593 0.52927
0.51576 0.31646 0.52947
0.542 0.15176 0.38704
0.71245 0.60638 0.56091
0.54049 0.20899 0.5261
0.63903 0.597 0.31873
0.52242 0.36235 0.45816
0.51908 0.35231 0.46148
0.45268 0.16992 0.51948
0.43937 0.25294 0.47333
0.56291 0.41145 0.47665
0.7175 0.60299 0.51443
0.45593 0.44372 0.45858
0.58598 0.59892 0.70162
0.36009 0.719 0.46291
